ncols        402
nrows        48
xllcorner    -91.42503
yllcorner    30.01668
cellsize     0.033333333333
NODATA_value  -9999
47 68 74 64 112 130 121 100 105 131 143 114 139 134 117 104 120 126 143 117 104 121 142 146 112 145 153 148 142 155 147 152 140 147 113 91 93 92 76 59 73 124 90 88 124 124 96 95 109 148 124 103 109 96 109 95 88 89 114 117 113 111 72 93 93 74 65 63 84 65 71 84 104 95 97 90 72 77 101 95 75 67 71 69 83 52 60 62 54 84 85 72 57 30 64 38 65 47 53 24 39 15 25 45 61 87 102 58 121 93 47 94 77 42 63 62 25 32 23 31 94 116 117 95 87 76 100 110 131 123 107 134 145 102 81 92 79 94 78 90 75 79 91 88 78 108 88 104 74 88 86 111 122 113 99 100 93 109 111 108 97 95 117 89 95 129 103 111 90 99 135 155 104 100 119 126 130 120 106 151 141 118 145 140 135 143 115 138 138 98 48 99 115 121 116 125 121 118 111 103 91 88 86 89 86 80 86 78 69 77 69 70 72 64 75 64 66 69 77 67 69 67 83 84 99 107 120 135 130 125 127 112 108 106 109 115 106 101 104 89 115 109 104 110 102 98 97 86 95 104 99 83 98 79 82 72 83 74 85 83 70 72 72 64 66 67 67 70 52 65 65 66 62 42 45 56 37 48 41 50 43 49 44 42 43 32 32 18 33 11 10 14 10 18 12 18 16 10 12 24 14 7 12 13 5 3 3 0 -9999 -9999 -9999 -9999 -9999 -9999 -9999 -9999 -9999 -9999 -9999 -9999 -9999 -9999 -9999 -9999 -9999 -9999 -9999 -9999 -9999 -9999 -9999 -9999 -9999 -9999 -9999 -9999 -9999 -9999 -9999 -9999 -9999 -9999 -9999 -9999 -9999 -9999 -9999 -9999 -9999 -9999 -9999 -9999 -9999 -9999 -9999 -9999 -9999 -9999 -9999 -9999 -9999 -9999 -9999 -9999 -9999 -9999 -9999 -9999 -9999 -9999 -9999 -9999 -9999 -9999 -9999 -9999 -9999 -9999 -9999 -9999 -9999 -9999 -9999 -9999 -9999 -9999 -9999 -9999 -9999 -9999 -9999 -9999 -9999 -9999 -9999 -9999 -9999 -9999 -9999 -9999 -9999 -9999
67 46 70 98 121 133 116 123 119 113 109 107 125 121 109 116 134 147 112 95 139 139 149 141 111 132 148 135 150 131 161 156 121 139 94 127 125 102 89 67 67 95 75 121 114 91 92 148 140 147 123 100 97 92 83 109 109 88 92 109 105 85 75 71 106 83 63 77 92 74 57 83 88 81 80 95 72 80 94 104 77 64 68 69 76 44 52 64 62 84 74 56 49 62 57 48 62 48 44 22 64 44 16 29 30 71 91 53 90 42 37 71 28 21 26 12 23 29 24 56 94 76 82 108 55 79 128 129 128 105 120 99 103 135 129 97 71 78 132 123 125 138 88 69 129 104 107 118 70 114 116 114 108 83 84 104 136 135 127 114 117 102 115 81 112 112 106 84 108 126 126 111 127 135 111 103 138 107 116 122 117 88 139 128 102 117 135 127 102 101 70 69 97 79 97 119 109 105 98 95 94 88 93 84 74 79 79 73 57 72 63 78 66 61 70 67 66 56 63 65 73 82 79 85 108 122 127 136 130 128 112 118 103 100 97 120 107 101 98 95 97 96 111 105 104 101 95 86 96 87 88 87 87 93 88 87 84 59 76 68 69 78 65 59 66 75 70 65 48 53 61 59 60 60 50 41 49 49 48 42 45 48 38 48 35 31 25 21 28 22 19 14 16 12 22 6 8 8 7 18 11 4 2 3 2 2 -9999 -9999 -9999 -9999 -9999 -9999 -9999 -9999 -9999 -9999 -9999 -9999 -9999 -9999 -9999 -9999 -9999 -9999 -9999 -9999 -9999 -9999 -9999 -9999 -9999 -9999 -9999 -9999 -9999 -9999 -9999 -9999 -9999 -9999 -9999 -9999 -9999 -9999 -9999 -9999 -9999 -9999 -9999 -9999 -9999 -9999 -9999 -9999 -9999 -9999 -9999 -9999 -9999 -9999 -9999 -9999 -9999 -9999 -9999 -9999 -9999 -9999 -9999 -9999 -9999 -9999 -9999 -9999 -9999 -9999 -9999 -9999 -9999 -9999 -9999 -9999 -9999 -9999 -9999 -9999 -9999 -9999 -9999 -9999 -9999 -9999 -9999 -9999 -9999 -9999 -9999 -9999 -9999 -9999 -9999 -9999
33 70 76 102 109 116 86 117 108 96 77 97 103 98 87 113 142 132 96 90 121 120 112 112 136 144 145 155 129 149 134 146 143 140 134 134 125 86 103 82 54 68 89 93 102 88 131 121 135 144 122 104 92 88 79 94 89 111 66 97 110 98 97 62 75 103 85 69 107 80 58 79 78 71 96 87 65 80 89 97 94 93 74 74 96 74 42 69 80 96 96 62 62 83 60 57 57 45 49 33 73 52 65 40 18 77 54 27 47 103 74 48 32 45 24 29 42 98 115 115 131 104 132 97 57 96 108 125 140 111 100 85 108 103 129 117 103 77 106 106 114 117 77 75 126 127 80 66 84 144 103 111 85 97 143 150 140 131 98 131 86 98 91 130 111 109 77 100 124 124 104 102 137 119 101 89 116 89 111 115 130 131 112 142 126 124 124 115 106 113 53 58 71 103 115 101 100 83 98 91 77 70 80 65 70 62 79 65 68 61 62 62 61 64 59 66 75 66 74 72 67 78 76 82 103 118 136 117 111 118 118 107 118 106 97 111 121 104 104 105 93 115 116 102 86 91 98 78 107 80 75 93 84 74 75 77 71 75 65 79 60 62 67 63 58 58 57 56 58 55 60 53 56 60 57 51 41 45 40 29 38 39 30 45 18 21 23 23 20 22 32 31 19 18 14 11 7 5 17 10 3 18 0 5 1 11 10 -9999 -9999 -9999 -9999 -9999 -9999 -9999 -9999 -9999 -9999 -9999 -9999 -9999 -9999 -9999 -9999 -9999 -9999 -9999 -9999 -9999 -9999 -9999 -9999 -9999 -9999 -9999 -9999 -9999 -9999 -9999 -9999 -9999 -9999 -9999 -9999 -9999 -9999 -9999 -9999 -9999 -9999 -9999 -9999 -9999 -9999 -9999 -9999 -9999 -9999 -9999 -9999 -9999 -9999 -9999 -9999 -9999 -9999 -9999 -9999 -9999 -9999 -9999 -9999 -9999 -9999 -9999 -9999 -9999 -9999 -9999 -9999 -9999 -9999 -9999 -9999 -9999 -9999 -9999 -9999 -9999 -9999 -9999 -9999 -9999 -9999 -9999 -9999 -9999 -9999 -9999 -9999 -9999 -9999 -9999
66 107 89 100 101 102 70 110 87 69 72 91 96 115 71 91 117 81 66 113 121 136 125 118 134 144 136 159 140 144 139 152 146 152 140 145 129 102 129 126 58 63 79 68 103 123 110 101 136 143 141 130 139 98 86 78 90 93 93 62 91 103 88 58 82 93 93 55 73 106 62 67 80 74 82 72 74 110 102 95 96 93 78 58 67 53 54 62 73 79 86 76 83 84 57 51 43 64 25 58 19 45 47 53 14 12 57 89 72 107 74 76 76 59 31 52 58 64 87 92 118 132 131 105 125 112 115 104 126 118 105 111 111 80 120 116 94 111 62 89 104 102 76 117 132 132 113 102 117 102 95 64 90 109 144 135 144 113 114 78 84 88 103 129 105 85 120 117 131 129 86 89 105 123 99 98 87 97 115 119 103 82 129 124 109 86 100 92 118 91 55 105 81 89 100 99 99 87 90 81 85 82 76 66 77 67 73 65 64 61 73 67 71 73 72 64 69 51 64 56 82 79 98 121 135 115 134 133 111 110 127 115 104 110 93 107 118 117 111 105 95 85 87 84 99 91 89 83 86 88 85 92 84 80 65 80 76 73 76 70 69 64 61 52 50 60 55 51 52 54 52 46 49 56 53 43 47 27 32 24 28 34 49 33 13 18 24 27 28 23 30 22 15 6 12 14 13 8 12 6 17 12 3 -9999 0 11 18 -9999 -9999 -9999 -9999 -9999 -9999 -9999 -9999 -9999 -9999 -9999 -9999 -9999 -9999 -9999 -9999 -9999 -9999 -9999 -9999 -9999 -9999 -9999 -9999 -9999 -9999 -9999 -9999 -9999 -9999 -9999 -9999 -9999 -9999 -9999 -9999 -9999 -9999 -9999 -9999 -9999 -9999 -9999 -9999 -9999 -9999 -9999 -9999 -9999 -9999 -9999 -9999 -9999 -9999 -9999 -9999 -9999 -9999 -9999 -9999 -9999 -9999 -9999 -9999 -9999 -9999 -9999 -9999 -9999 -9999 -9999 -9999 -9999 -9999 -9999 -9999 -9999 -9999 -9999 -9999 -9999 -9999 -9999 -9999 -9999 -9999 -9999 -9999 -9999 -9999 -9999 -9999 -9999 -9999 -9999
101 57 106 101 106 81 69 76 80 64 70 98 114 127 83 75 83 69 113 142 84 100 139 139 152 145 146 136 131 130 150 148 153 156 148 145 127 122 131 127 68 65 62 79 103 74 101 119 124 106 117 140 134 115 110 87 90 79 71 81 71 90 80 56 88 83 80 56 76 90 80 58 69 97 70 66 81 82 78 96 95 77 84 62 59 63 57 69 88 72 66 82 86 67 45 52 56 28 32 44 40 27 14 16 26 51 43 81 78 74 79 89 26 79 30 30 66 67 122 127 127 128 133 105 120 138 116 93 90 100 99 97 83 100 94 108 89 86 88 82 95 98 72 110 102 123 91 114 101 71 62 112 121 129 128 121 113 135 112 92 71 97 81 89 71 134 138 124 123 129 104 100 98 122 86 77 103 126 121 123 86 107 123 101 105 101 98 113 57 90 53 109 102 101 94 88 90 86 72 75 89 82 85 71 65 63 57 70 61 62 73 71 58 64 62 55 61 68 57 66 83 97 91 106 136 121 128 125 104 107 107 119 104 106 104 88 107 108 107 111 107 104 92 96 80 89 88 95 93 97 73 81 68 57 67 58 72 73 69 57 67 57 62 53 46 49 52 55 51 42 52 41 59 54 53 50 39 38 47 40 25 37 41 30 15 20 20 23 32 25 28 20 15 18 5 13 16 6 7 7 9 17 3 -9999 13 10 -9999 -9999 -9999 -9999 -9999 -9999 -9999 -9999 -9999 -9999 -9999 -9999 -9999 -9999 -9999 -9999 -9999 -9999 -9999 -9999 -9999 -9999 -9999 -9999 -9999 -9999 -9999 -9999 -9999 -9999 -9999 -9999 -9999 -9999 -9999 -9999 -9999 -9999 -9999 -9999 -9999 -9999 -9999 -9999 -9999 -9999 -9999 -9999 -9999 -9999 -9999 -9999 -9999 -9999 -9999 -9999 -9999 -9999 -9999 -9999 -9999 -9999 -9999 -9999 -9999 -9999 -9999 -9999 -9999 -9999 -9999 -9999 -9999 -9999 -9999 -9999 -9999 -9999 -9999 -9999 -9999 -9999 -9999 -9999 -9999 -9999 -9999 -9999 -9999 -9999 -9999 -9999 -9999 -9999 -9999 -9999
69 89 73 90 82 45 94 101 64 58 84 99 107 100 63 60 99 74 107 139 141 133 136 145 147 150 122 151 133 135 142 150 139 139 144 141 131 137 138 144 126 94 54 70 75 74 108 111 112 101 127 139 128 129 125 94 101 99 92 82 60 84 92 53 64 100 83 54 88 75 85 52 67 86 69 54 71 65 84 85 92 96 83 72 67 45 43 74 86 77 77 82 81 65 49 45 45 61 55 40 56 35 20 18 19 50 62 84 51 45 51 55 14 9 16 47 54 83 89 125 127 132 129 126 101 110 114 81 88 143 88 76 72 93 85 102 95 104 101 85 58 91 57 81 91 100 75 87 77 89 93 119 112 123 125 93 135 135 101 107 56 110 122 107 133 138 115 87 97 100 99 78 104 79 94 129 73 115 111 85 97 125 117 111 112 122 126 107 91 72 57 65 98 88 92 85 71 76 71 70 69 87 74 68 55 66 66 65 69 66 71 69 60 62 65 55 61 56 60 80 83 76 106 127 132 121 132 109 114 101 111 120 96 104 94 83 96 110 104 96 100 91 101 95 88 73 90 89 92 92 86 85 76 82 83 65 71 69 64 56 57 50 59 57 59 49 52 50 50 56 53 47 45 52 54 50 49 52 32 33 19 26 43 24 20 21 17 23 28 32 26 20 20 13 14 14 15 2 8 13 11 0 0 2 14 -9999 -9999 -9999 -9999 -9999 -9999 -9999 -9999 -9999 -9999 -9999 -9999 -9999 -9999 -9999 -9999 -9999 -9999 -9999 -9999 -9999 -9999 -9999 -9999 -9999 -9999 -9999 -9999 -9999 -9999 -9999 -9999 -9999 -9999 -9999 -9999 -9999 -9999 -9999 -9999 -9999 -9999 -9999 -9999 -9999 -9999 -9999 -9999 -9999 -9999 -9999 -9999 -9999 -9999 -9999 -9999 -9999 -9999 -9999 -9999 -9999 -9999 -9999 -9999 -9999 -9999 -9999 -9999 -9999 -9999 -9999 -9999 -9999 -9999 -9999 -9999 -9999 -9999 -9999 -9999 -9999 -9999 -9999 -9999 -9999 -9999 -9999 -9999 -9999 -9999 -9999 -9999 -9999 -9999 -9999 -9999 -9999
57 53 49 40 49 73 77 61 42 71 96 92 109 72 53 103 110 132 137 143 138 148 152 154 141 145 150 134 120 135 143 128 125 163 117 137 133 139 129 103 95 118 104 62 61 73 79 111 88 93 101 135 123 123 110 120 128 120 86 74 63 53 64 58 59 89 83 73 53 72 57 46 57 69 69 64 69 67 68 100 77 84 95 96 68 42 44 71 101 64 66 68 78 61 46 46 56 43 41 54 24 18 15 13 15 18 61 61 55 21 26 22 40 45 31 65 65 70 87 122 117 120 123 99 91 113 95 110 116 103 89 72 63 75 83 93 92 83 72 98 56 89 65 97 112 91 53 64 77 107 103 118 94 92 112 111 104 120 103 79 86 98 94 119 144 141 128 81 81 84 86 122 118 99 86 104 63 93 77 99 95 106 106 105 113 108 100 97 83 61 69 100 101 104 86 79 73 81 74 65 75 81 76 64 60 59 55 63 51 64 51 56 64 71 60 58 62 65 55 66 81 104 116 122 125 112 117 115 90 111 89 115 104 91 115 95 92 103 101 93 105 101 92 88 90 96 70 96 81 78 84 84 76 73 72 69 69 56 64 68 59 57 50 55 62 40 51 58 57 60 51 48 41 37 41 37 43 43 34 28 21 22 24 16 25 27 23 20 19 25 11 13 3 12 14 2 12 6 0 20 3 1 1 -9999 4 -9999 -9999 -9999 -9999 -9999 -9999 -9999 -9999 -9999 -9999 -9999 -9999 -9999 -9999 -9999 -9999 -9999 -9999 -9999 -9999 -9999 -9999 -9999 -9999 -9999 -9999 -9999 -9999 -9999 -9999 -9999 -9999 -9999 -9999 -9999 -9999 -9999 -9999 -9999 -9999 -9999 -9999 -9999 -9999 -9999 -9999 -9999 -9999 -9999 -9999 -9999 -9999 -9999 -9999 -9999 -9999 -9999 -9999 -9999 -9999 -9999 -9999 -9999 -9999 -9999 -9999 -9999 -9999 -9999 -9999 -9999 -9999 -9999 -9999 -9999 -9999 -9999 -9999 -9999 -9999 -9999 -9999 -9999 -9999 -9999 -9999 -9999 -9999 -9999 -9999 -9999 -9999 -9999 -9999 -9999 -9999 -9999
48 26 37 30 41 29 27 47 48 71 70 68 58 45 94 96 83 111 151 133 141 139 141 134 135 144 143 117 124 121 119 136 133 118 128 137 138 140 135 134 126 132 131 96 49 54 77 91 118 117 108 106 129 103 112 107 110 136 128 90 81 82 51 48 51 87 84 82 53 49 69 44 72 78 51 79 67 58 65 92 102 82 73 82 79 42 43 74 74 68 80 70 85 61 77 63 51 38 28 27 31 27 19 13 11 10 45 38 31 11 29 33 30 34 63 56 87 60 91 118 90 102 119 82 95 97 82 82 117 92 108 57 83 87 89 93 93 72 90 75 61 52 72 95 107 98 56 80 113 89 98 109 104 86 100 103 118 91 113 54 82 96 123 119 118 128 122 86 93 72 83 116 83 76 58 85 81 109 112 112 91 119 113 113 102 97 87 87 74 52 57 66 82 82 84 74 64 68 74 65 69 74 73 68 71 55 57 49 58 61 47 51 57 60 55 57 58 61 64 74 90 84 91 108 129 104 110 125 115 98 96 98 101 91 103 94 82 82 89 97 90 93 77 74 91 91 84 69 81 69 81 76 73 78 69 58 54 67 55 62 52 51 54 56 55 40 50 55 52 53 51 47 37 43 46 29 39 37 43 27 17 20 16 20 26 17 38 25 26 26 9 13 14 19 13 16 13 11 2 0 -3 1 -2 -1 -9999 -9999 -9999 -9999 -9999 -9999 -9999 -9999 -9999 -9999 -9999 -9999 -9999 -9999 -9999 -9999 -9999 -9999 -9999 -9999 -9999 -9999 -9999 -9999 -9999 -9999 -9999 -9999 -9999 -9999 -9999 -9999 -9999 -9999 -9999 -9999 -9999 -9999 -9999 -9999 -9999 -9999 -9999 -9999 -9999 -9999 -9999 -9999 -9999 -9999 -9999 -9999 -9999 -9999 -9999 -9999 -9999 -9999 -9999 -9999 -9999 -9999 -9999 -9999 -9999 -9999 -9999 -9999 -9999 -9999 -9999 -9999 -9999 -9999 -9999 -9999 -9999 -9999 -9999 -9999 -9999 -9999 -9999 -9999 -9999 -9999 -9999 -9999 -9999 -9999 -9999 -9999 -9999 -9999 -9999 -9999 -9999 -9999
23 21 49 102 54 61 81 66 44 39 54 69 98 63 131 136 134 131 158 120 128 141 142 135 147 130 139 137 124 113 116 140 123 107 136 142 132 140 137 137 120 139 129 116 84 49 56 76 99 123 94 103 115 86 97 108 107 120 102 109 105 72 64 58 44 67 86 67 64 50 81 52 49 78 49 66 64 52 64 78 80 70 79 54 79 43 48 65 83 79 61 80 61 66 72 47 45 53 45 32 26 20 20 14 12 20 15 8 31 19 18 34 43 64 66 116 107 107 118 117 112 111 77 90 100 96 87 70 95 92 71 86 83 102 76 90 79 65 53 69 61 61 91 90 89 72 50 99 113 93 107 82 95 77 73 101 107 104 88 59 104 102 106 85 98 122 119 107 95 76 99 109 74 96 119 117 107 114 121 116 106 106 92 76 58 81 69 92 68 67 63 68 67 74 77 66 58 63 64 64 68 67 78 72 67 70 68 54 51 46 61 63 45 49 54 60 59 52 61 83 105 84 104 119 121 106 116 109 124 114 94 81 89 86 87 96 89 87 94 83 92 97 80 76 79 79 79 79 78 74 70 79 78 71 70 66 67 62 63 61 60 52 46 47 52 43 51 47 49 41 34 46 48 45 40 33 39 40 42 18 27 20 20 16 11 13 28 28 20 23 9 18 15 10 7 16 17 12 11 0 0 -9999 -9999 -9999 -9999 -9999 -9999 -9999 -9999 -9999 -9999 -9999 -9999 -9999 -9999 -9999 -9999 -9999 -9999 -9999 -9999 -9999 -9999 -9999 -9999 -9999 -9999 -9999 -9999 -9999 -9999 -9999 -9999 -9999 -9999 -9999 -9999 -9999 -9999 -9999 -9999 -9999 -9999 -9999 -9999 -9999 -9999 -9999 -9999 -9999 -9999 -9999 -9999 -9999 -9999 -9999 -9999 -9999 -9999 -9999 -9999 -9999 -9999 -9999 -9999 -9999 -9999 -9999 -9999 -9999 -9999 -9999 -9999 -9999 -9999 -9999 -9999 -9999 -9999 -9999 -9999 -9999 -9999 -9999 -9999 -9999 -9999 -9999 -9999 -9999 -9999 -9999 -9999 -9999 -9999 -9999 -9999 -9999 -9999 -9999 -9999 -9999
21 66 76 60 108 76 91 97 66 78 64 99 101 82 103 140 131 122 136 116 138 135 126 136 132 126 127 144 137 124 131 95 135 96 104 112 125 132 128 120 121 114 132 131 109 57 48 77 82 125 91 80 74 101 105 130 105 93 121 110 127 110 111 63 48 40 73 68 60 48 73 52 45 68 61 51 48 86 75 82 81 70 51 66 56 48 53 49 67 87 51 63 71 61 84 53 42 51 39 23 29 21 21 8 8 15 23 12 20 24 17 23 49 61 83 88 99 108 83 118 109 74 66 102 87 74 92 66 105 70 88 74 86 83 77 90 106 73 64 55 53 82 94 69 86 48 97 101 104 77 101 78 92 76 98 96 99 82 59 71 93 101 101 81 101 83 108 114 111 77 66 83 85 95 67 119 104 96 106 103 90 91 101 67 71 91 83 75 72 38 74 62 71 79 75 74 62 62 59 50 59 72 73 67 59 66 66 57 70 66 45 56 58 49 48 61 68 66 71 85 116 111 100 115 104 108 101 109 109 113 102 108 89 92 84 96 88 81 101 82 89 77 84 83 76 78 83 75 79 76 72 66 66 80 66 77 68 61 63 64 56 51 41 45 36 37 47 45 45 48 45 31 45 40 47 35 26 24 22 32 26 18 23 23 15 15 24 33 30 21 22 19 22 14 7 12 10 16 19 13 0 2 22 -1 -9999 -9999 -9999 -9999 -9999 -9999 -9999 -9999 -9999 -9999 -9999 -9999 -9999 -9999 -9999 -9999 -9999 -9999 -9999 -9999 -9999 -9999 -9999 -9999 -9999 -9999 -9999 -9999 -9999 -9999 -9999 -9999 -9999 -9999 -9999 -9999 -9999 -9999 -9999 -9999 -9999 -9999 -9999 -9999 -9999 -9999 -9999 -9999 -9999 -9999 -9999 -9999 -9999 -9999 -9999 -9999 -9999 -9999 -9999 -9999 -9999 -9999 -9999 -9999 -9999 -9999 -9999 -9999 -9999 -9999 -9999 -9999 -9999 -9999 -9999 -9999 -9999 -9999 -9999 -9999 -9999 -9999 -9999 -9999 -9999 -9999 -9999 -9999 -9999 -9999 -9999 -9999 -9999 -9999 -9999 -9999 -9999 -9999
25 65 40 63 84 67 86 99 114 95 91 115 125 109 129 109 127 120 117 146 150 125 123 108 138 120 140 143 144 136 120 127 103 116 136 125 129 136 115 118 104 118 120 122 86 90 44 51 77 83 71 57 103 110 107 110 96 92 89 102 95 116 109 90 56 45 49 58 52 46 49 42 38 78 67 39 45 72 61 71 75 65 49 63 50 56 40 45 62 93 76 68 53 69 58 49 48 50 51 67 46 22 14 7 14 7 11 14 15 10 53 37 29 41 70 63 90 74 83 117 103 105 69 101 102 65 74 57 76 63 94 72 82 74 88 73 100 68 48 47 53 86 80 61 44 71 107 80 101 83 99 83 75 90 98 105 75 81 56 89 78 102 93 85 85 105 77 74 96 90 75 63 87 98 92 89 66 86 80 84 98 88 73 86 102 76 68 86 69 43 57 48 68 66 69 67 70 71 60 65 59 68 67 65 56 58 58 58 46 51 59 57 58 49 49 55 63 58 71 95 123 105 106 114 93 119 97 98 94 117 100 107 101 87 81 79 79 65 73 77 78 64 80 76 79 86 78 72 79 77 68 63 70 68 71 69 65 66 69 68 44 55 53 49 53 50 50 47 44 46 48 43 29 40 46 51 42 30 27 23 25 27 23 29 20 29 16 31 25 10 17 17 17 10 12 18 10 7 4 13 0 15 3 0 -9999 -9999 -9999 -9999 -9999 -9999 -9999 -9999 -9999 -9999 -9999 -9999 -9999 -9999 -9999 -9999 -9999 -9999 -9999 -9999 -9999 -9999 -9999 -9999 -9999 -9999 -9999 -9999 -9999 -9999 -9999 -9999 -9999 -9999 -9999 -9999 -9999 -9999 -9999 -9999 -9999 -9999 -9999 -9999 -9999 -9999 -9999 -9999 -9999 -9999 -9999 -9999 -9999 -9999 -9999 -9999 -9999 -9999 -9999 -9999 -9999 -9999 -9999 -9999 -9999 -9999 -9999 -9999 -9999 -9999 -9999 -9999 -9999 -9999 -9999 -9999 -9999 -9999 -9999 -9999 -9999 -9999 -9999 -9999 -9999 -9999 -9999 -9999 -9999 -9999 -9999 -9999 -9999 -9999 -9999 -9999 -9999 -9999
26 46 55 63 39 59 66 96 106 134 115 143 131 129 129 130 118 115 133 143 132 124 113 133 122 140 109 144 113 124 135 126 104 96 127 102 113 127 129 114 104 125 114 91 107 72 48 51 54 59 78 89 93 112 106 90 113 106 103 75 84 111 86 101 85 83 87 39 39 38 36 31 37 37 46 37 60 44 54 70 73 83 69 51 77 74 29 45 72 67 76 56 53 52 77 44 39 41 32 23 19 24 21 10 7 8 8 11 12 20 37 61 70 65 92 73 100 105 104 106 81 63 75 111 92 64 90 74 65 61 78 50 70 72 65 72 76 83 79 52 55 49 54 52 73 66 91 96 66 71 81 87 76 89 89 88 71 78 47 80 74 82 69 79 94 86 89 71 73 78 60 45 100 92 82 81 80 71 79 86 101 99 89 88 93 98 79 81 69 35 59 56 64 74 64 59 60 70 61 63 52 70 59 65 67 58 53 57 49 44 48 61 46 47 54 57 58 54 61 102 108 112 90 105 101 103 102 101 102 95 92 96 92 94 87 79 78 75 88 71 86 83 62 78 81 92 73 79 71 76 71 57 80 79 72 73 70 64 60 58 58 51 58 45 58 58 48 57 48 47 46 48 47 35 28 29 37 30 36 47 26 22 21 28 28 25 14 26 28 24 5 11 5 14 8 3 18 6 11 2 1 17 0 -1 -9999 -9999 -9999 -9999 -9999 -9999 -9999 -9999 -9999 -9999 -9999 -9999 -9999 -9999 -9999 -9999 -9999 -9999 -9999 -9999 -9999 -9999 -9999 -9999 -9999 -9999 -9999 -9999 -9999 -9999 -9999 -9999 -9999 -9999 -9999 -9999 -9999 -9999 -9999 -9999 -9999 -9999 -9999 -9999 -9999 -9999 -9999 -9999 -9999 -9999 -9999 -9999 -9999 -9999 -9999 -9999 -9999 -9999 -9999 -9999 -9999 -9999 -9999 -9999 -9999 -9999 -9999 -9999 -9999 -9999 -9999 -9999 -9999 -9999 -9999 -9999 -9999 -9999 -9999 -9999 -9999 -9999 -9999 -9999 -9999 -9999 -9999 -9999 -9999 -9999 -9999 -9999 -9999 -9999 -9999 -9999 -9999 -9999
63 66 74 74 87 85 77 94 99 95 118 129 119 127 112 115 125 111 127 121 113 110 127 132 130 119 110 125 139 109 113 132 123 115 116 133 130 125 125 97 124 107 101 118 124 76 58 39 49 66 69 84 118 106 105 101 112 119 121 89 103 73 87 96 101 98 91 99 75 83 73 71 74 46 38 33 51 54 45 52 68 65 54 36 82 57 27 45 87 86 52 62 54 68 62 49 61 54 53 78 56 23 27 26 13 15 17 12 14 21 60 81 68 66 99 102 100 95 97 99 92 55 102 110 83 60 65 72 52 58 76 44 69 54 54 91 100 70 53 53 42 67 80 76 66 96 67 77 67 75 84 64 79 96 81 72 88 77 70 51 81 68 80 81 87 82 85 80 69 50 46 95 63 98 95 86 94 88 98 95 106 89 81 83 84 90 65 73 60 43 52 55 59 62 71 69 74 58 52 54 49 56 57 55 55 52 57 49 55 45 61 56 40 56 45 61 65 59 74 104 99 102 103 103 90 103 110 97 96 94 94 90 79 90 82 76 75 88 91 81 79 73 57 71 75 76 75 70 69 73 75 65 74 67 66 70 63 65 55 59 57 57 57 58 51 54 52 51 45 45 44 44 41 48 42 48 42 38 41 40 43 22 26 30 26 27 19 24 30 23 11 5 1 23 4 0 0 7 5 5 0 12 -9999 -9999 -9999 -9999 -9999 -9999 -9999 -9999 -9999 -9999 -9999 -9999 -9999 -9999 -9999 -9999 -9999 -9999 -9999 -9999 -9999 -9999 -9999 -9999 -9999 -9999 -9999 -9999 -9999 -9999 -9999 -9999 -9999 -9999 -9999 -9999 -9999 -9999 -9999 -9999 -9999 -9999 -9999 -9999 -9999 -9999 -9999 -9999 -9999 -9999 -9999 -9999 -9999 -9999 -9999 -9999 -9999 -9999 -9999 -9999 -9999 -9999 -9999 -9999 -9999 -9999 -9999 -9999 -9999 -9999 -9999 -9999 -9999 -9999 -9999 -9999 -9999 -9999 -9999 -9999 -9999 -9999 -9999 -9999 -9999 -9999 -9999 -9999 -9999 -9999 -9999 -9999 -9999 -9999 -9999 -9999 -9999 -9999 -9999 -9999
76 69 89 76 99 69 64 78 98 127 114 111 110 122 116 103 116 91 115 118 109 114 100 121 130 117 112 119 110 128 123 128 125 108 76 113 121 126 98 120 129 125 112 114 90 71 60 38 46 51 52 80 84 63 78 72 99 117 114 114 112 90 64 99 93 94 85 94 102 88 90 84 75 66 58 31 29 38 38 69 61 46 56 38 63 40 33 40 68 73 53 64 48 62 81 92 82 61 61 47 31 23 29 12 12 6 10 17 46 51 47 66 59 103 101 93 93 100 96 105 90 42 97 91 74 57 50 74 61 62 67 50 71 83 91 65 64 52 40 46 82 96 92 90 95 90 75 75 78 68 58 66 80 81 87 96 86 83 58 52 75 73 63 67 77 71 66 46 40 59 83 59 81 92 94 76 86 86 86 77 84 85 80 73 71 74 64 68 57 41 43 59 57 59 64 62 59 62 58 61 53 48 52 54 51 51 50 56 52 59 48 46 51 55 54 55 61 88 105 107 100 90 92 95 94 91 95 106 91 86 95 73 82 83 84 62 67 78 76 75 77 75 67 61 75 70 75 79 66 75 74 57 71 69 64 74 63 61 65 61 57 72 56 54 52 52 51 47 44 50 46 46 43 46 47 43 43 41 38 48 35 20 20 23 21 27 20 19 25 7 12 3 12 16 16 3 3 0 3 0 14 0 -9999 -9999 -9999 -9999 -9999 -9999 -9999 -9999 -9999 -9999 -9999 -9999 -9999 -9999 -9999 -9999 -9999 -9999 -9999 -9999 -9999 -9999 -9999 -9999 -9999 -9999 -9999 -9999 -9999 -9999 -9999 -9999 -9999 -9999 -9999 -9999 -9999 -9999 -9999 -9999 -9999 -9999 -9999 -9999 -9999 -9999 -9999 -9999 -9999 -9999 -9999 -9999 -9999 -9999 -9999 -9999 -9999 -9999 -9999 -9999 -9999 -9999 -9999 -9999 -9999 -9999 -9999 -9999 -9999 -9999 -9999 -9999 -9999 -9999 -9999 -9999 -9999 -9999 -9999 -9999 -9999 -9999 -9999 -9999 -9999 -9999 -9999 -9999 -9999 -9999 -9999 -9999 -9999 -9999 -9999 -9999 -9999 -9999 -9999 -9999
114 127 119 104 90 76 93 72 119 89 103 117 100 94 115 113 103 103 114 134 101 102 115 128 110 120 120 109 92 120 112 121 116 109 97 98 119 118 91 102 111 116 118 103 100 106 92 52 44 39 70 76 122 105 105 103 108 111 97 102 98 108 72 64 85 65 69 92 94 72 98 93 81 95 79 51 37 22 21 49 50 53 28 64 50 32 32 69 62 91 76 42 49 58 93 95 49 38 42 71 54 61 15 7 14 10 3 47 20 45 50 45 78 94 105 91 94 90 88 88 85 46 84 66 79 44 78 59 53 47 42 43 76 60 47 34 40 40 57 71 89 87 91 91 86 91 98 55 63 57 55 70 66 76 74 64 70 53 69 42 69 67 67 64 59 70 61 48 77 51 89 84 74 65 84 90 85 88 79 69 85 76 72 67 61 59 61 61 67 55 54 55 45 55 63 55 53 60 47 50 43 44 48 50 53 43 44 41 58 48 52 56 44 46 54 79 95 119 98 93 91 93 88 86 87 85 91 77 83 102 77 81 79 74 67 72 69 68 80 73 75 66 65 65 70 78 70 73 60 66 62 67 69 69 66 67 62 63 60 58 54 57 53 55 55 51 50 52 51 47 41 42 43 47 52 40 38 47 43 49 20 29 24 32 21 10 23 23 5 18 16 11 3 11 12 3 2 0 2 -9999 -9999 -9999 -9999 -9999 -9999 -9999 -9999 -9999 -9999 -9999 -9999 -9999 -9999 -9999 -9999 -9999 -9999 -9999 -9999 -9999 -9999 -9999 -9999 -9999 -9999 -9999 -9999 -9999 -9999 -9999 -9999 -9999 -9999 -9999 -9999 -9999 -9999 -9999 -9999 -9999 -9999 -9999 -9999 -9999 -9999 -9999 -9999 -9999 -9999 -9999 -9999 -9999 -9999 -9999 -9999 -9999 -9999 -9999 -9999 -9999 -9999 -9999 -9999 -9999 -9999 -9999 -9999 -9999 -9999 -9999 -9999 -9999 -9999 -9999 -9999 -9999 -9999 -9999 -9999 -9999 -9999 -9999 -9999 -9999 -9999 -9999 -9999 -9999 -9999 -9999 -9999 -9999 -9999 -9999 -9999 -9999 -9999 -9999 -9999 -9999 -9999 -9999
99 110 99 116 122 126 117 117 103 107 117 107 110 97 116 99 87 112 109 110 84 111 108 122 122 119 105 125 95 115 112 100 117 106 110 69 97 88 117 115 112 120 98 119 110 83 77 49 44 41 64 80 78 97 129 107 112 85 100 101 77 88 99 96 60 85 60 69 61 68 92 79 80 75 84 62 64 45 29 37 53 45 40 30 31 29 57 91 91 57 69 42 83 76 106 91 59 39 49 49 34 49 14 6 6 10 6 46 51 44 60 49 83 96 82 97 94 81 90 62 86 44 64 74 56 53 55 68 59 40 39 40 34 28 28 52 56 75 64 68 67 74 73 76 89 92 70 58 56 67 58 85 71 83 84 89 73 58 51 46 62 70 71 58 45 66 72 40 64 79 81 78 83 86 85 83 74 80 63 60 69 69 65 59 60 53 50 53 64 52 51 50 45 58 61 53 51 58 43 45 46 44 43 46 41 56 47 53 44 43 45 55 50 56 65 86 106 109 115 103 88 87 79 85 83 89 77 81 92 79 76 82 70 77 75 58 73 68 63 71 73 71 68 63 76 66 67 62 70 62 62 67 65 68 61 58 65 66 63 59 59 65 50 49 56 51 50 46 45 44 46 43 44 41 40 42 45 40 39 50 25 28 27 29 32 11 23 24 11 6 3 8 8 10 17 11 1 2 2 -9999 11 -9999 -9999 -9999 -9999 -9999 -9999 -9999 -9999 -9999 -9999 -9999 -9999 -9999 -9999 -9999 -9999 -9999 -9999 -9999 -9999 -9999 -9999 -9999 -9999 -9999 -9999 -9999 -9999 -9999 -9999 -9999 -9999 -9999 -9999 -9999 -9999 -9999 -9999 -9999 -9999 -9999 -9999 -9999 -9999 -9999 -9999 -9999 -9999 -9999 -9999 -9999 -9999 -9999 -9999 -9999 -9999 -9999 -9999 -9999 -9999 -9999 -9999 -9999 -9999 -9999 -9999 -9999 -9999 -9999 -9999 -9999 -9999 -9999 -9999 -9999 -9999 -9999 -9999 -9999 -9999 -9999 -9999 -9999 -9999 -9999 -9999 -9999 -9999 -9999 -9999 -9999 -9999 -9999 -9999 -9999 -9999 -9999 -9999 -9999 -9999 -9999
116 89 116 97 106 104 110 74 100 106 100 101 115 82 114 90 74 105 97 84 97 120 112 97 130 112 103 118 104 116 101 112 124 107 106 95 92 78 99 104 114 107 102 90 89 102 81 70 45 37 41 70 75 77 96 115 115 107 98 95 95 95 73 67 87 60 55 51 48 62 58 81 88 91 76 80 65 50 34 32 61 51 25 27 25 58 68 88 77 68 61 58 69 83 73 105 87 64 42 32 15 26 7 16 9 10 12 31 36 51 55 69 89 77 79 80 90 96 94 92 93 55 33 56 87 64 64 51 17 30 28 52 73 43 100 71 69 51 91 85 79 65 79 71 72 86 54 76 84 78 89 90 91 94 86 61 75 56 64 55 46 52 43 52 45 51 41 46 61 61 72 70 77 80 77 72 78 69 57 59 67 57 53 51 51 44 51 58 59 48 42 46 37 49 50 57 53 48 42 52 42 44 47 43 54 47 43 49 49 47 55 49 52 56 75 115 101 98 95 101 91 90 71 91 77 73 74 88 88 81 69 75 70 58 60 61 62 59 68 74 73 64 72 72 65 69 69 77 63 63 66 54 63 68 68 58 68 59 58 55 58 58 55 52 50 44 45 46 46 48 42 42 36 42 50 52 45 42 43 37 37 28 29 31 11 11 24 16 9 3 19 17 10 12 15 19 10 0 0 5 -9999 -9999 -9999 -9999 -9999 -9999 -9999 -9999 -9999 -9999 -9999 -9999 -9999 -9999 -9999 -9999 -9999 -9999 -9999 -9999 -9999 -9999 -9999 -9999 -9999 -9999 -9999 -9999 -9999 -9999 -9999 -9999 -9999 -9999 -9999 -9999 -9999 -9999 -9999 -9999 -9999 -9999 -9999 -9999 -9999 -9999 -9999 -9999 -9999 -9999 -9999 -9999 -9999 -9999 -9999 -9999 -9999 -9999 -9999 -9999 -9999 -9999 -9999 -9999 -9999 -9999 -9999 -9999 -9999 -9999 -9999 -9999 -9999 -9999 -9999 -9999 -9999 -9999 -9999 -9999 -9999 -9999 -9999 -9999 -9999 -9999 -9999 -9999 -9999 -9999 -9999 -9999 -9999 -9999 -9999 -9999 -9999 -9999 -9999 -9999 -9999 -9999
86 83 106 91 98 97 105 85 103 97 102 97 109 95 73 91 79 89 66 102 120 108 93 112 110 94 91 115 75 82 101 105 112 98 111 95 64 107 112 109 104 96 96 111 91 110 97 86 39 46 39 58 82 91 104 128 89 95 88 91 96 88 97 93 86 88 75 88 97 69 52 70 72 77 82 66 59 53 41 28 34 26 26 40 39 70 82 79 76 48 46 60 44 64 92 69 78 60 58 87 61 32 3 3 15 13 22 51 57 73 95 91 91 75 69 92 102 93 89 90 93 95 86 44 45 54 45 36 31 53 62 65 78 69 90 85 67 76 78 69 75 67 72 76 69 63 48 78 74 77 91 103 97 82 76 71 59 51 52 58 38 39 46 38 36 48 31 37 72 67 63 65 76 76 67 69 70 65 64 50 55 40 44 47 40 44 45 57 59 48 52 42 32 56 55 46 55 46 53 45 42 43 52 44 62 56 35 45 50 49 43 53 59 71 99 106 104 90 84 94 97 86 96 78 75 82 82 72 86 93 80 76 76 58 52 72 67 76 53 72 66 73 70 54 72 50 74 62 61 56 66 52 58 66 62 64 65 60 58 52 57 55 56 52 45 52 46 45 46 41 49 45 44 41 39 45 38 47 41 41 29 26 31 31 8 8 23 9 13 14 15 6 4 2 7 13 12 2 1 -9999 -9999 -9999 -9999 -9999 -9999 -9999 -9999 -9999 -9999 -9999 -9999 -9999 -9999 -9999 -9999 -9999 -9999 -9999 -9999 -9999 -9999 -9999 -9999 -9999 -9999 -9999 -9999 -9999 -9999 -9999 -9999 -9999 -9999 -9999 -9999 -9999 -9999 -9999 -9999 -9999 -9999 -9999 -9999 -9999 -9999 -9999 -9999 -9999 -9999 -9999 -9999 -9999 -9999 -9999 -9999 -9999 -9999 -9999 -9999 -9999 -9999 -9999 -9999 -9999 -9999 -9999 -9999 -9999 -9999 -9999 -9999 -9999 -9999 -9999 -9999 -9999 -9999 -9999 -9999 -9999 -9999 -9999 -9999 -9999 -9999 -9999 -9999 -9999 -9999 -9999 -9999 -9999 -9999 -9999 -9999 -9999 -9999 -9999 -9999 -9999 -9999 -9999
52 74 90 90 81 93 76 105 96 92 86 90 102 101 95 68 68 77 94 97 91 93 78 114 109 95 79 93 77 107 110 107 103 89 95 89 68 92 102 96 111 107 93 74 67 77 105 63 39 39 41 73 74 92 98 108 116 103 82 78 76 84 89 84 89 78 70 68 63 54 54 50 49 53 84 89 50 65 49 27 19 27 36 57 77 77 75 82 77 53 40 62 83 78 47 56 87 60 63 71 40 28 21 0 4 18 16 36 57 94 75 73 64 69 68 86 69 88 88 89 67 83 78 58 56 30 23 30 90 85 89 88 62 80 73 84 71 81 64 56 48 54 74 65 75 74 57 67 67 84 89 86 85 95 85 69 71 73 68 48 57 39 37 34 64 40 51 29 63 69 53 70 67 69 51 66 73 52 57 45 46 43 43 43 37 40 49 47 48 47 40 41 34 45 52 45 37 46 49 39 49 42 30 57 43 44 48 45 49 48 43 57 85 96 93 112 106 87 84 77 79 75 90 68 60 71 73 77 81 84 66 88 59 65 54 61 77 62 56 68 60 77 54 49 45 72 75 66 61 66 62 50 64 60 61 60 60 62 60 55 60 55 63 53 50 54 48 42 43 46 45 46 44 42 48 47 40 41 55 35 31 24 29 29 2 5 25 6 13 1 11 4 5 4 0 3 -9999 0 -9999 -9999 -9999 -9999 -9999 -9999 -9999 -9999 -9999 -9999 -9999 -9999 -9999 -9999 -9999 -9999 -9999 -9999 -9999 -9999 -9999 -9999 -9999 -9999 -9999 -9999 -9999 -9999 -9999 -9999 -9999 -9999 -9999 -9999 -9999 -9999 -9999 -9999 -9999 -9999 -9999 -9999 -9999 -9999 -9999 -9999 -9999 -9999 -9999 -9999 -9999 -9999 -9999 -9999 -9999 -9999 -9999 -9999 -9999 -9999 -9999 -9999 -9999 -9999 -9999 -9999 -9999 -9999 -9999 -9999 -9999 -9999 -9999 -9999 -9999 -9999 -9999 -9999 -9999 -9999 -9999 -9999 -9999 -9999 -9999 -9999 -9999 -9999 -9999 -9999 -9999 -9999 -9999 -9999 -9999 -9999 -9999 -9999 -9999 -9999 -9999 -9999 -9999 -9999
47 68 100 72 101 83 69 90 78 90 71 100 91 101 84 83 64 90 93 80 88 92 95 107 98 105 76 75 78 91 98 111 100 107 79 90 59 92 92 99 81 96 108 80 55 71 71 56 39 32 59 57 69 66 89 117 100 100 106 100 78 94 77 70 81 83 104 77 90 62 80 74 45 64 83 76 67 41 47 22 28 64 61 67 75 82 85 81 64 47 40 79 72 77 48 40 52 59 86 86 38 18 9 8 3 7 23 30 53 89 75 58 54 64 70 92 55 85 76 86 84 77 87 44 24 18 77 93 82 66 95 82 66 60 51 83 55 87 49 64 43 68 71 61 56 55 61 80 87 85 79 81 96 87 83 96 70 94 80 59 53 56 54 53 53 48 40 29 33 49 54 53 59 58 51 65 43 55 46 47 63 41 48 44 38 41 47 56 48 47 50 42 38 38 56 49 45 40 34 44 36 35 46 39 39 36 42 51 37 42 58 68 97 103 88 85 97 90 82 85 71 86 68 66 61 76 78 81 83 85 66 61 61 57 47 54 66 72 56 49 60 68 62 57 49 74 62 74 62 66 54 48 64 57 60 55 58 65 58 51 60 58 57 57 51 50 51 40 48 47 44 51 42 45 41 41 40 40 52 33 28 30 25 27 7 8 25 9 16 13 8 12 5 14 2 3 3 1 1 -9999 -9999 -9999 -9999 -9999 -9999 -9999 -9999 -9999 -9999 -9999 -9999 -9999 -9999 -9999 -9999 -9999 -9999 -9999 -9999 -9999 -9999 -9999 -9999 -9999 -9999 -9999 -9999 -9999 -9999 -9999 -9999 -9999 -9999 -9999 -9999 -9999 -9999 -9999 -9999 -9999 -9999 -9999 -9999 -9999 -9999 -9999 -9999 -9999 -9999 -9999 -9999 -9999 -9999 -9999 -9999 -9999 -9999 -9999 -9999 -9999 -9999 -9999 -9999 -9999 -9999 -9999 -9999 -9999 -9999 -9999 -9999 -9999 -9999 -9999 -9999 -9999 -9999 -9999 -9999 -9999 -9999 -9999 -9999 -9999 -9999 -9999 -9999 -9999 -9999 -9999 -9999 -9999 -9999 -9999 -9999 -9999 -9999 -9999 -9999 -9999 -9999 -9999
47 83 87 68 58 81 55 90 88 86 73 91 74 91 92 94 65 64 69 89 105 84 64 76 99 77 77 57 78 87 94 99 75 86 74 75 57 86 85 85 92 103 92 103 87 71 46 46 35 36 42 78 74 75 68 104 99 72 99 106 101 88 76 80 64 70 82 102 98 88 90 78 75 30 50 75 58 57 43 28 13 60 45 71 88 88 61 65 55 47 42 56 72 86 86 74 40 41 52 41 30 18 8 2 2 18 31 47 78 86 59 59 41 68 77 85 66 80 83 68 72 53 79 38 21 55 77 85 76 58 87 78 61 47 55 71 58 71 63 53 51 74 56 68 55 43 68 72 69 77 69 83 70 78 104 81 65 77 74 62 62 72 53 42 34 48 30 28 39 47 42 47 47 42 68 46 46 55 47 53 53 45 41 39 34 39 54 54 49 52 41 41 44 40 43 38 37 34 43 38 34 42 51 46 42 50 38 31 46 58 87 102 90 95 80 92 68 85 85 71 66 63 64 75 75 75 78 78 68 72 71 61 74 58 50 71 82 52 54 48 74 59 58 44 60 64 60 67 62 65 66 44 55 57 61 56 52 61 53 52 48 56 52 54 48 44 41 40 44 50 47 46 36 41 45 37 41 43 49 37 21 24 23 28 7 5 23 9 3 11 21 16 9 24 10 11 5 3 -9999 24 -9999 -9999 -9999 -9999 -9999 -9999 -9999 -9999 -9999 -9999 -9999 -9999 -9999 -9999 -9999 -9999 -9999 -9999 -9999 -9999 -9999 -9999 -9999 -9999 -9999 -9999 -9999 -9999 -9999 -9999 -9999 -9999 -9999 -9999 -9999 -9999 -9999 -9999 -9999 -9999 -9999 -9999 -9999 -9999 -9999 -9999 -9999 -9999 -9999 -9999 -9999 -9999 -9999 -9999 -9999 -9999 -9999 -9999 -9999 -9999 -9999 -9999 -9999 -9999 -9999 -9999 -9999 -9999 -9999 -9999 -9999 -9999 -9999 -9999 -9999 -9999 -9999 -9999 -9999 -9999 -9999 -9999 -9999 -9999 -9999 -9999 -9999 -9999 -9999 -9999 -9999 -9999 -9999 -9999 -9999 -9999 -9999 -9999 -9999 -9999 -9999 -9999
58 74 81 79 73 60 71 77 83 93 74 83 75 90 78 83 55 55 59 78 96 92 77 80 97 67 66 55 82 87 87 91 99 93 91 78 49 65 88 81 75 91 98 100 81 79 54 46 44 41 41 93 67 61 75 86 88 67 73 89 91 113 84 65 62 61 63 94 86 77 78 76 65 49 36 45 59 61 53 27 18 37 46 64 72 81 83 40 55 36 32 74 61 85 84 44 50 33 45 49 15 8 11 11 4 1 30 50 83 82 73 58 52 61 71 63 66 80 81 70 46 60 54 18 28 77 76 78 66 49 74 71 88 47 54 43 71 45 68 81 37 51 82 55 41 47 48 73 61 65 56 69 72 95 77 81 74 79 78 99 93 97 55 48 34 34 24 38 42 46 36 38 47 39 44 35 46 50 51 50 55 62 42 52 35 35 45 56 53 44 44 39 38 33 39 31 45 38 39 47 48 50 36 41 42 52 40 55 72 95 97 96 95 85 74 85 78 79 75 82 73 80 71 70 83 85 89 67 70 80 82 80 78 56 47 65 66 59 67 60 47 49 54 77 74 64 66 70 63 64 67 52 58 57 59 59 51 59 53 57 51 48 46 48 52 47 48 45 37 45 47 41 38 38 39 42 46 40 37 39 26 21 32 29 12 6 4 4 8 19 16 8 8 8 16 13 23 -4 7 13 -9999 -9999 -9999 -9999 -9999 -9999 -9999 -9999 -9999 -9999 -9999 -9999 -9999 -9999 -9999 -9999 -9999 -9999 -9999 -9999 -9999 -9999 -9999 -9999 -9999 -9999 -9999 -9999 -9999 -9999 -9999 -9999 -9999 -9999 -9999 -9999 -9999 -9999 -9999 -9999 -9999 -9999 -9999 -9999 -9999 -9999 -9999 -9999 -9999 -9999 -9999 -9999 -9999 -9999 -9999 -9999 -9999 -9999 -9999 -9999 -9999 -9999 -9999 -9999 -9999 -9999 -9999 -9999 -9999 -9999 -9999 -9999 -9999 -9999 -9999 -9999 -9999 -9999 -9999 -9999 -9999 -9999 -9999 -9999 -9999 -9999 -9999 -9999 -9999 -9999 -9999 -9999 -9999 -9999 -9999 -9999 -9999 -9999 -9999 -9999 -9999 -9999
25 58 73 78 75 43 71 78 65 71 75 60 89 76 85 82 63 50 63 73 93 69 68 83 90 81 70 56 74 67 81 87 93 79 84 71 54 59 71 74 91 93 86 85 62 82 45 39 36 35 64 59 54 57 69 91 115 73 75 92 99 90 107 85 84 55 56 74 82 60 70 80 54 45 54 36 37 28 53 11 15 19 51 61 75 74 55 71 51 27 48 57 52 82 77 51 25 35 37 21 19 4 4 5 8 12 44 64 64 79 80 58 54 42 68 43 58 76 78 91 33 82 26 22 22 75 73 74 63 45 59 53 73 37 52 49 68 65 67 75 36 52 77 61 25 56 85 48 77 60 62 68 64 72 76 79 67 82 76 87 78 61 48 78 56 32 27 30 26 43 37 34 52 52 30 34 36 42 39 50 42 55 35 33 46 35 33 42 46 35 42 34 36 28 34 35 31 29 38 24 36 37 37 40 52 47 83 91 106 93 83 100 90 81 70 72 82 83 64 75 61 70 71 94 94 81 59 67 76 71 77 82 76 70 57 55 65 63 47 61 67 48 57 76 68 70 63 68 65 58 62 54 58 54 62 53 55 53 58 50 51 53 50 49 49 43 60 36 41 42 46 37 40 42 55 42 36 40 45 45 18 28 37 15 4 13 15 18 8 19 15 3 8 13 12 1 -9999 0 6 6 -9999 -9999 -9999 -9999 -9999 -9999 -9999 -9999 -9999 -9999 -9999 -9999 -9999 -9999 -9999 -9999 -9999 -9999 -9999 -9999 -9999 -9999 -9999 -9999 -9999 -9999 -9999 -9999 -9999 -9999 -9999 -9999 -9999 -9999 -9999 -9999 -9999 -9999 -9999 -9999 -9999 -9999 -9999 -9999 -9999 -9999 -9999 -9999 -9999 -9999 -9999 -9999 -9999 -9999 -9999 -9999 -9999 -9999 -9999 -9999 -9999 -9999 -9999 -9999 -9999 -9999 -9999 -9999 -9999 -9999 -9999 -9999 -9999 -9999 -9999 -9999 -9999 -9999 -9999 -9999 -9999 -9999 -9999 -9999 -9999 -9999 -9999 -9999 -9999 -9999 -9999 -9999 -9999 -9999 -9999 -9999 -9999 -9999 -9999 -9999 -9999 -9999
44 65 60 62 62 32 71 70 56 72 61 59 72 77 74 60 63 52 76 76 81 81 74 62 81 68 77 54 67 76 65 74 79 75 84 63 66 55 52 74 86 75 77 80 82 53 46 32 32 31 52 64 53 58 56 88 98 87 68 72 74 64 92 105 72 62 47 51 57 61 51 69 69 52 43 42 55 28 16 30 23 20 47 55 50 62 71 52 28 62 69 82 61 66 85 60 35 28 52 16 8 8 6 1 5 25 71 46 44 62 66 72 48 56 39 58 78 57 75 75 74 58 32 16 22 38 71 69 67 57 35 44 40 67 48 34 64 71 70 45 50 78 65 51 36 51 75 87 66 59 58 60 61 81 74 73 64 67 87 69 83 49 54 39 37 45 23 28 34 37 41 48 43 53 40 27 32 36 40 52 47 43 57 48 53 31 34 38 43 36 44 41 30 36 33 38 37 29 29 31 30 34 39 47 79 100 99 105 92 85 106 92 83 90 61 76 76 79 56 85 90 96 95 99 77 64 42 45 73 55 56 61 76 73 64 47 63 56 70 51 59 55 73 66 67 57 64 63 55 58 50 40 57 55 57 52 54 53 52 50 48 49 51 50 48 47 46 39 36 43 38 43 42 44 42 39 46 40 41 44 24 13 24 12 6 5 9 18 16 5 8 11 9 17 14 10 -1 0 1 -9999 -9999 -9999 -9999 -9999 -9999 -9999 -9999 -9999 -9999 -9999 -9999 -9999 -9999 -9999 -9999 -9999 -9999 -9999 -9999 -9999 -9999 -9999 -9999 -9999 -9999 -9999 -9999 -9999 -9999 -9999 -9999 -9999 -9999 -9999 -9999 -9999 -9999 -9999 -9999 -9999 -9999 -9999 -9999 -9999 -9999 -9999 -9999 -9999 -9999 -9999 -9999 -9999 -9999 -9999 -9999 -9999 -9999 -9999 -9999 -9999 -9999 -9999 -9999 -9999 -9999 -9999 -9999 -9999 -9999 -9999 -9999 -9999 -9999 -9999 -9999 -9999 -9999 -9999 -9999 -9999 -9999 -9999 -9999 -9999 -9999 -9999 -9999 -9999 -9999 -9999 -9999 -9999 -9999 -9999 -9999 -9999 -9999 -9999 -9999 -9999 -9999 -9999
46 37 51 60 39 31 58 62 60 67 58 53 71 58 69 54 57 45 74 67 65 57 71 52 70 60 70 40 50 49 66 74 72 71 77 73 67 54 46 46 65 82 68 57 53 48 28 35 30 55 56 58 45 64 71 85 81 95 83 62 68 60 91 87 103 94 94 70 42 44 38 48 37 40 39 31 28 27 32 10 21 17 25 36 45 52 51 59 31 42 57 49 57 79 74 45 68 39 16 7 5 3 1 0 10 17 26 66 41 63 51 60 41 45 65 34 61 70 64 48 75 45 29 13 21 64 66 55 78 64 65 24 36 65 53 39 66 64 38 56 75 70 74 39 44 78 58 47 57 43 35 39 45 67 45 53 71 73 84 72 63 69 71 52 29 32 28 19 30 41 41 44 36 33 30 29 33 36 43 49 57 58 42 56 48 54 48 41 42 44 45 34 36 30 24 42 36 30 24 29 24 46 31 90 102 83 90 82 69 104 88 87 97 72 87 60 67 58 85 72 96 92 76 94 69 70 62 53 48 66 55 44 61 69 50 64 46 54 40 58 55 60 55 62 60 59 57 51 54 53 53 41 55 52 59 51 52 50 54 46 51 51 49 51 47 44 39 37 42 40 38 40 39 43 44 39 39 45 38 41 24 28 6 9 25 10 9 6 6 5 17 12 13 6 6 14 -6 3 1 -9999 -9999 -9999 -9999 -9999 -9999 -9999 -9999 -9999 -9999 -9999 -9999 -9999 -9999 -9999 -9999 -9999 -9999 -9999 -9999 -9999 -9999 -9999 -9999 -9999 -9999 -9999 -9999 -9999 -9999 -9999 -9999 -9999 -9999 -9999 -9999 -9999 -9999 -9999 -9999 -9999 -9999 -9999 -9999 -9999 -9999 -9999 -9999 -9999 -9999 -9999 -9999 -9999 -9999 -9999 -9999 -9999 -9999 -9999 -9999 -9999 -9999 -9999 -9999 -9999 -9999 -9999 -9999 -9999 -9999 -9999 -9999 -9999 -9999 -9999 -9999 -9999 -9999 -9999 -9999 -9999 -9999 -9999 -9999 -9999 -9999 -9999 -9999 -9999 -9999 -9999 -9999 -9999 -9999 -9999 -9999 -9999 -9999 -9999 -9999 -9999 -9999 -9999
10 25 30 46 53 45 56 54 57 52 42 47 58 44 50 64 50 45 60 69 57 52 50 56 55 49 54 35 47 66 68 67 71 69 51 54 74 73 51 40 40 55 70 76 59 45 31 29 30 56 58 54 56 51 65 63 84 96 74 76 62 61 50 86 60 68 80 59 63 62 63 36 30 59 43 50 39 34 21 28 16 19 9 25 42 27 46 42 24 52 61 51 36 68 72 71 69 55 21 14 0 3 0 7 11 30 20 39 67 56 42 62 45 40 58 65 46 70 40 41 56 68 29 16 16 52 80 57 58 72 55 65 30 35 70 37 45 61 38 35 75 71 55 32 42 74 44 62 63 71 72 71 84 83 86 88 79 70 75 58 45 42 42 31 33 25 24 29 35 29 37 47 23 35 30 42 51 54 58 48 50 57 44 53 57 52 32 48 47 53 47 46 40 36 24 24 24 25 56 71 80 76 96 96 79 78 89 76 66 89 96 69 86 84 72 60 41 60 73 93 83 66 77 72 76 54 73 66 40 39 60 58 62 55 42 71 63 46 37 61 57 64 63 64 63 49 54 53 39 55 55 43 53 54 55 51 54 53 50 57 49 55 48 47 49 48 36 36 36 37 38 46 42 42 43 38 40 38 54 37 26 9 16 21 16 13 9 6 12 10 18 6 -1 7 5 10 1 -1 5 -9999 -9999 -9999 -9999 -9999 -9999 -9999 -9999 -9999 -9999 -9999 -9999 -9999 -9999 -9999 -9999 -9999 -9999 -9999 -9999 -9999 -9999 -9999 -9999 -9999 -9999 -9999 -9999 -9999 -9999 -9999 -9999 -9999 -9999 -9999 -9999 -9999 -9999 -9999 -9999 -9999 -9999 -9999 -9999 -9999 -9999 -9999 -9999 -9999 -9999 -9999 -9999 -9999 -9999 -9999 -9999 -9999 -9999 -9999 -9999 -9999 -9999 -9999 -9999 -9999 -9999 -9999 -9999 -9999 -9999 -9999 -9999 -9999 -9999 -9999 -9999 -9999 -9999 -9999 -9999 -9999 -9999 -9999 -9999 -9999 -9999 -9999 -9999 -9999 -9999 -9999 -9999 -9999 -9999 -9999 -9999 -9999 -9999 -9999 -9999 -9999 -9999 -9999
16 24 27 23 40 46 39 41 42 48 46 43 53 45 50 56 39 43 53 60 55 59 49 50 53 43 41 36 59 66 60 52 61 65 63 55 71 71 66 40 39 42 65 62 69 41 29 29 26 58 51 59 37 42 57 56 65 87 67 58 73 57 62 66 76 55 60 60 72 77 78 43 49 56 50 59 54 25 24 19 18 16 12 13 26 28 45 39 23 32 51 61 45 42 63 78 69 66 34 17 4 14 3 4 3 34 23 42 73 60 45 37 55 28 59 48 42 25 40 45 58 59 55 15 10 48 63 65 46 64 40 53 37 43 40 18 24 33 32 62 68 63 52 30 63 55 39 54 50 52 75 67 84 80 53 71 64 66 82 82 78 64 56 44 23 26 23 24 34 34 28 32 40 24 23 32 64 44 50 49 51 51 41 39 43 39 30 41 46 42 47 54 49 65 74 46 24 68 61 70 65 71 87 90 80 66 83 57 75 83 93 76 75 60 60 52 70 82 73 87 83 72 60 48 35 40 66 57 58 63 53 61 57 45 61 51 52 60 37 35 49 67 73 59 52 53 53 56 44 51 42 36 47 48 49 49 47 49 50 58 50 52 53 50 43 50 39 36 37 39 39 40 36 42 40 41 52 48 45 44 23 6 19 32 28 8 17 13 12 12 1 14 4 1 0 0 1 0 1 -9999 -9999 -9999 -9999 -9999 -9999 -9999 -9999 -9999 -9999 -9999 -9999 -9999 -9999 -9999 -9999 -9999 -9999 -9999 -9999 -9999 -9999 -9999 -9999 -9999 -9999 -9999 -9999 -9999 -9999 -9999 -9999 -9999 -9999 -9999 -9999 -9999 -9999 -9999 -9999 -9999 -9999 -9999 -9999 -9999 -9999 -9999 -9999 -9999 -9999 -9999 -9999 -9999 -9999 -9999 -9999 -9999 -9999 -9999 -9999 -9999 -9999 -9999 -9999 -9999 -9999 -9999 -9999 -9999 -9999 -9999 -9999 -9999 -9999 -9999 -9999 -9999 -9999 -9999 -9999 -9999 -9999 -9999 -9999 -9999 -9999 -9999 -9999 -9999 -9999 -9999 -9999 -9999 -9999 -9999 -9999 -9999 -9999 -9999 -9999 -9999 -9999 -9999
14 15 10 20 39 42 43 46 44 35 37 44 40 37 43 41 28 33 47 45 47 38 45 45 37 32 35 32 54 51 38 47 49 49 52 56 62 51 66 53 52 37 41 31 34 33 28 29 43 68 64 42 26 44 62 52 56 58 85 61 59 64 44 48 76 73 48 51 55 57 55 42 50 48 44 54 47 46 37 39 32 29 8 6 11 21 21 36 21 31 38 36 31 49 53 78 63 73 19 14 15 9 0 0 3 47 46 56 65 60 59 32 31 30 39 61 47 33 34 18 30 67 45 18 10 17 51 62 40 45 65 46 37 7 8 22 66 52 56 26 35 27 16 22 26 32 42 43 43 46 59 72 69 80 55 42 53 37 50 43 71 63 62 53 27 20 18 19 28 25 30 25 18 21 24 31 54 91 100 47 37 42 33 32 31 33 26 35 35 34 52 44 42 40 36 32 24 40 71 89 93 75 76 87 76 88 84 90 56 74 82 85 73 42 71 64 72 54 85 77 62 59 56 71 64 53 63 56 38 65 31 50 56 35 39 46 49 57 51 34 34 55 63 55 60 41 56 42 49 55 53 43 47 50 52 56 45 54 52 57 51 54 53 44 44 41 36 38 42 40 40 36 35 33 36 42 37 40 40 38 35 31 24 39 29 13 23 5 13 8 11 9 7 6 8 16 -11 -2 -2 1 -9999 -9999 -9999 -9999 -9999 -9999 -9999 -9999 -9999 -9999 -9999 -9999 -9999 -9999 -9999 -9999 -9999 -9999 -9999 -9999 -9999 -9999 -9999 -9999 -9999 -9999 -9999 -9999 -9999 -9999 -9999 -9999 -9999 -9999 -9999 -9999 -9999 -9999 -9999 -9999 -9999 -9999 -9999 -9999 -9999 -9999 -9999 -9999 -9999 -9999 -9999 -9999 -9999 -9999 -9999 -9999 -9999 -9999 -9999 -9999 -9999 -9999 -9999 -9999 -9999 -9999 -9999 -9999 -9999 -9999 -9999 -9999 -9999 -9999 -9999 -9999 -9999 -9999 -9999 -9999 -9999 -9999 -9999 -9999 -9999 -9999 -9999 -9999 -9999 -9999 -9999 -9999 -9999 -9999 -9999 -9999 -9999 -9999 -9999 -9999 -9999 -9999
7 14 10 18 28 38 36 33 34 31 34 40 30 35 35 32 38 38 34 38 38 37 36 40 29 38 30 32 42 44 43 30 39 52 40 47 51 43 62 62 58 54 35 25 35 30 24 28 30 54 43 33 59 75 68 54 60 61 54 66 57 54 47 55 56 56 47 39 57 54 65 48 38 44 35 40 49 32 41 44 28 31 25 16 17 18 18 30 27 19 27 36 53 51 49 59 43 61 35 14 13 -9999 -9999 -9999 0 18 54 58 56 49 54 52 34 33 25 36 43 29 43 33 15 44 53 31 9 6 51 58 24 53 59 16 6 50 55 47 31 52 22 15 27 21 41 44 54 60 68 65 69 60 68 63 60 68 64 64 59 27 44 39 52 41 74 44 16 11 29 24 16 28 25 13 18 34 29 43 74 39 45 47 69 48 72 50 71 51 44 27 34 57 48 56 61 54 46 21 53 69 64 72 83 95 92 96 91 71 57 77 43 71 80 81 52 47 48 78 56 45 57 33 53 49 39 41 59 40 45 58 39 36 30 38 44 47 30 34 49 41 41 34 50 30 36 56 37 55 38 58 51 37 44 49 50 48 44 47 46 47 51 45 46 45 44 46 44 40 40 29 39 36 42 41 41 36 43 41 40 40 38 53 28 18 23 28 28 22 19 9 6 10 13 6 6 9 10 14 4 11 0 2 -9999 -9999 -9999 -9999 -9999 -9999 -9999 -9999 -9999 -9999 -9999 -9999 -9999 -9999 -9999 -9999 -9999 -9999 -9999 -9999 -9999 -9999 -9999 -9999 -9999 -9999 -9999 -9999 -9999 -9999 -9999 -9999 -9999 -9999 -9999 -9999 -9999 -9999 -9999 -9999 -9999 -9999 -9999 -9999 -9999 -9999 -9999 -9999 -9999 -9999 -9999 -9999 -9999 -9999 -9999 -9999 -9999 -9999 -9999 -9999 -9999 -9999 -9999 -9999 -9999 -9999 -9999 -9999 -9999 -9999 -9999 -9999 -9999 -9999 -9999 -9999 -9999 -9999 -9999 -9999 -9999 -9999 -9999 -9999 -9999 -9999 -9999 -9999 -9999 -9999 -9999 -9999 -9999 -9999 -9999 -9999 -9999 -9999 -9999 -9999 -9999 -9999
12 16 17 25 31 27 31 29 36 36 28 25 24 26 22 36 39 37 39 37 27 33 27 35 33 22 32 28 34 25 40 36 45 45 39 39 50 36 47 54 51 44 45 47 26 22 24 30 18 31 38 19 58 59 38 62 51 58 56 46 52 47 60 54 53 45 32 40 45 38 73 62 35 40 35 26 33 43 32 37 43 37 45 12 13 17 17 22 26 11 19 38 50 37 59 33 18 34 17 11 9 -9999 -9999 -9999 -9999 48 53 54 57 54 50 56 58 43 43 14 28 16 50 54 9 35 35 34 16 13 23 43 52 24 27 10 32 41 45 25 14 14 28 29 50 32 51 39 71 65 54 65 45 55 66 56 44 53 63 59 57 21 59 44 34 22 27 15 19 19 37 19 8 19 14 25 48 51 36 58 27 86 65 93 92 97 92 50 77 93 61 28 49 77 61 64 39 45 40 65 74 50 56 92 93 97 100 87 78 64 85 54 59 79 65 59 50 50 30 39 56 50 66 59 75 52 48 48 55 48 40 68 44 40 32 33 46 44 31 33 47 55 72 44 61 57 28 37 37 55 40 46 51 48 42 48 47 56 61 47 46 40 43 43 43 41 45 40 48 43 40 39 42 38 36 37 36 39 37 37 37 40 39 45 33 24 25 28 32 22 15 6 8 4 17 11 -1 20 16 6 11 16 1 -9999 -9999 -9999 -9999 -9999 -9999 -9999 -9999 -9999 -9999 -9999 -9999 -9999 -9999 -9999 -9999 -9999 -9999 -9999 -9999 -9999 -9999 -9999 -9999 -9999 -9999 -9999 -9999 -9999 -9999 -9999 -9999 -9999 -9999 -9999 -9999 -9999 -9999 -9999 -9999 -9999 -9999 -9999 -9999 -9999 -9999 -9999 -9999 -9999 -9999 -9999 -9999 -9999 -9999 -9999 -9999 -9999 -9999 -9999 -9999 -9999 -9999 -9999 -9999 -9999 -9999 -9999 -9999 -9999 -9999 -9999 -9999 -9999 -9999 -9999 -9999 -9999 -9999 -9999 -9999 -9999 -9999 -9999 -9999 -9999 -9999 -9999 -9999 -9999 -9999 -9999 -9999 -9999 -9999 -9999 -9999 -9999 -9999 -9999 -9999 -9999 -9999 -9999
9 9 7 15 16 26 22 28 33 25 28 24 24 34 24 33 27 25 30 24 36 25 35 35 28 28 24 20 36 21 20 29 23 25 35 24 33 34 34 39 38 44 49 50 32 29 28 30 14 18 22 31 46 48 43 53 49 48 53 38 57 40 33 56 48 32 35 23 27 24 54 52 43 39 35 31 37 30 28 21 23 34 27 11 13 12 16 19 19 19 28 23 35 44 50 55 55 22 14 8 -9999 -9999 -9999 -9999 -9999 43 51 48 41 50 52 50 51 44 33 51 30 16 20 25 20 37 38 53 45 13 2 9 42 46 31 21 15 12 11 12 11 50 43 45 57 61 62 62 48 45 43 34 38 44 35 45 39 48 54 51 27 20 50 42 53 61 51 53 44 15 24 29 25 32 23 39 72 64 76 91 76 82 86 70 68 81 81 63 54 49 26 24 68 69 40 46 33 27 66 80 80 80 90 84 86 98 90 93 82 71 35 39 75 78 49 45 53 30 70 72 49 58 62 51 65 56 24 49 50 37 62 44 57 55 40 55 38 30 30 32 36 54 59 48 44 51 39 41 27 33 44 48 52 57 53 42 49 45 57 51 55 46 50 47 47 35 49 44 44 36 38 34 34 44 41 40 37 37 37 43 43 39 39 49 33 24 25 31 24 24 19 8 11 6 7 6 0 -2 -1 3 11 10 -1 -9999 -9999 -9999 -9999 -9999 -9999 -9999 -9999 -9999 -9999 -9999 -9999 -9999 -9999 -9999 -9999 -9999 -9999 -9999 -9999 -9999 -9999 -9999 -9999 -9999 -9999 -9999 -9999 -9999 -9999 -9999 -9999 -9999 -9999 -9999 -9999 -9999 -9999 -9999 -9999 -9999 -9999 -9999 -9999 -9999 -9999 -9999 -9999 -9999 -9999 -9999 -9999 -9999 -9999 -9999 -9999 -9999 -9999 -9999 -9999 -9999 -9999 -9999 -9999 -9999 -9999 -9999 -9999 -9999 -9999 -9999 -9999 -9999 -9999 -9999 -9999 -9999 -9999 -9999 -9999 -9999 -9999 -9999 -9999 -9999 -9999 -9999 -9999 -9999 -9999 -9999 -9999 -9999 -9999 -9999 -9999 -9999 -9999 -9999 -9999 -9999 -9999 -9999
6 7 10 5 17 26 19 21 25 23 23 26 24 24 27 26 26 25 20 19 24 30 29 19 25 20 25 23 24 23 20 12 21 17 19 30 36 26 26 30 39 33 36 30 32 27 25 13 23 19 21 18 35 31 39 43 36 44 45 35 47 60 29 39 56 33 33 31 32 17 37 45 31 22 32 23 20 25 24 29 13 20 19 19 6 14 14 18 9 10 19 22 30 46 47 35 54 30 11 5 -9999 -9999 -9999 -9999 -9999 34 27 38 24 46 42 48 37 49 41 33 27 13 19 11 34 44 37 36 44 39 2 -9999 2 15 10 10 0 8 20 31 27 49 40 57 46 47 55 66 54 38 10 46 41 54 49 33 38 36 30 24 37 30 34 28 46 55 32 25 24 10 15 39 47 51 49 28 28 44 41 36 68 73 65 74 67 75 57 45 38 40 29 22 73 44 32 42 27 79 77 92 87 85 89 74 77 83 83 74 81 79 65 54 65 55 41 46 27 40 45 69 49 54 59 62 39 55 40 24 35 41 61 38 48 59 44 39 36 32 34 38 42 40 48 44 36 33 44 50 34 36 52 50 53 47 44 38 30 39 60 53 52 50 47 44 43 46 48 43 45 44 37 40 43 38 42 44 38 41 41 38 37 43 50 57 29 23 18 20 21 22 20 10 9 13 6 8 4 2 1 0 9 -1 1 -9999 -9999 -9999 -9999 -9999 -9999 -9999 -9999 -9999 -9999 -9999 -9999 -9999 -9999 -9999 -9999 -9999 -9999 -9999 -9999 -9999 -9999 -9999 -9999 -9999 -9999 -9999 -9999 -9999 -9999 -9999 -9999 -9999 -9999 -9999 -9999 -9999 -9999 -9999 -9999 -9999 -9999 -9999 -9999 -9999 -9999 -9999 -9999 -9999 -9999 -9999 -9999 -9999 -9999 -9999 -9999 -9999 -9999 -9999 -9999 -9999 -9999 -9999 -9999 -9999 -9999 -9999 -9999 -9999 -9999 -9999 -9999 -9999 -9999 -9999 -9999 -9999 -9999 -9999 -9999 -9999 -9999 -9999 -9999 -9999 -9999 -9999 -9999 -9999 -9999 -9999 -9999 -9999 -9999 -9999 -9999 -9999 -9999 -9999 -9999 -9999 -9999 -9999
13 5 6 11 21 20 9 24 23 25 17 22 24 20 26 24 19 20 26 24 31 17 20 20 29 28 29 22 20 20 22 16 16 13 14 18 26 16 16 21 19 24 29 30 33 31 18 21 21 24 22 24 30 22 30 34 25 30 40 34 49 53 44 28 33 34 47 43 21 25 20 30 34 46 19 15 13 18 27 24 17 6 13 23 9 2 4 16 9 11 19 12 22 39 41 41 26 29 11 -9999 -9999 -9999 -9999 -9999 -9999 46 42 38 28 41 30 43 35 34 26 32 25 26 9 18 35 34 23 42 51 43 42 -9999 -9999 0 14 -9999 1 26 44 44 42 28 48 47 47 50 40 40 41 41 30 0 19 21 18 24 34 23 31 20 22 26 28 24 19 29 39 40 31 17 8 22 29 40 40 43 42 40 49 29 23 44 55 60 69 67 70 69 50 56 41 27 54 42 36 32 30 61 50 81 67 67 63 56 77 91 57 46 58 78 44 57 77 65 34 39 35 51 52 48 64 50 62 57 58 46 30 52 56 59 65 31 34 23 43 35 36 43 35 38 43 43 32 42 36 56 35 27 40 37 28 25 36 38 41 31 36 50 53 48 47 51 48 47 42 39 45 47 45 40 39 43 42 36 43 43 42 48 44 41 44 42 42 56 29 28 18 32 24 34 31 6 6 9 10 9 16 14 12 3 1 3 14 -9999 -9999 -9999 -9999 -9999 -9999 -9999 -9999 -9999 -9999 -9999 -9999 -9999 -9999 -9999 -9999 -9999 -9999 -9999 -9999 -9999 -9999 -9999 -9999 -9999 -9999 -9999 -9999 -9999 -9999 -9999 -9999 -9999 -9999 -9999 -9999 -9999 -9999 -9999 -9999 -9999 -9999 -9999 -9999 -9999 -9999 -9999 -9999 -9999 -9999 -9999 -9999 -9999 -9999 -9999 -9999 -9999 -9999 -9999 -9999 -9999 -9999 -9999 -9999 -9999 -9999 -9999 -9999 -9999 -9999 -9999 -9999 -9999 -9999 -9999 -9999 -9999 -9999 -9999 -9999 -9999 -9999 -9999 -9999 -9999 -9999 -9999 -9999 -9999 -9999 -9999 -9999 -9999 -9999 -9999 -9999 -9999 -9999 -9999 -9999 -9999 -9999 -9999
15 17 1 8 5 10 9 24 25 18 21 32 15 27 16 13 20 12 21 13 20 27 19 13 18 19 15 18 19 15 22 15 12 16 14 10 15 16 12 15 16 15 13 14 19 17 17 19 15 20 7 17 20 24 24 30 16 29 32 24 29 39 55 29 25 31 25 29 27 25 29 12 19 16 18 12 14 18 18 16 9 20 9 10 5 7 8 16 6 6 14 20 30 35 38 41 16 12 12 -9999 -9999 -9999 -9999 -9999 9 32 33 27 11 31 35 40 29 27 21 22 25 21 10 11 10 12 11 36 36 38 35 36 -9999 0 8 -9999 -9999 15 34 39 38 43 43 36 39 22 27 36 24 30 23 22 -9999 9 28 27 11 17 11 15 0 18 14 20 21 25 17 11 21 18 20 38 14 37 44 46 46 41 32 37 43 21 60 59 52 61 60 60 59 49 40 22 44 36 34 24 36 55 73 80 77 63 68 69 77 75 62 79 42 59 36 48 45 45 32 39 68 63 69 44 40 27 53 45 43 48 33 70 58 57 43 29 33 33 31 33 38 34 32 29 37 37 55 39 60 42 39 30 38 34 34 27 38 26 24 46 34 40 34 44 46 42 49 49 49 45 51 49 47 44 44 43 45 44 44 41 41 36 37 37 39 48 48 52 26 25 31 25 32 24 25 6 6 17 7 7 10 13 9 18 13 3 7 6 -9999 -9999 -9999 -9999 -9999 -9999 -9999 -9999 -9999 -9999 -9999 -9999 -9999 -9999 -9999 -9999 -9999 -9999 -9999 -9999 -9999 -9999 -9999 -9999 -9999 -9999 -9999 -9999 -9999 -9999 -9999 -9999 -9999 -9999 -9999 -9999 -9999 -9999 -9999 -9999 -9999 -9999 -9999 -9999 -9999 -9999 -9999 -9999 -9999 -9999 -9999 -9999 -9999 -9999 -9999 -9999 -9999 -9999 -9999 -9999 -9999 -9999 -9999 -9999 -9999 -9999 -9999 -9999 -9999 -9999 -9999 -9999 -9999 -9999 -9999 -9999 -9999 -9999 -9999 -9999 -9999 -9999 -9999 -9999 -9999 -9999 -9999 -9999 -9999 -9999 -9999 -9999 -9999 -9999 -9999 -9999 -9999 -9999 -9999 -9999 -9999 -9999
14 18 10 17 4 6 8 17 26 15 20 23 18 11 11 13 18 11 19 10 13 22 16 8 16 15 12 17 14 16 21 9 18 12 9 13 16 11 10 15 17 20 16 16 22 16 17 26 33 29 17 1 19 22 19 16 17 21 30 34 18 30 16 39 23 8 30 23 20 14 14 14 19 11 16 8 10 15 17 23 5 3 10 12 1 0 7 3 3 5 5 11 20 31 37 23 21 13 13 -9999 -9999 -9999 -9999 -9999 -9999 33 26 29 24 32 32 30 32 31 33 18 31 18 22 8 -9999 -9999 33 15 27 31 27 -9999 -9999 10 -9999 -9999 -9999 -9999 -9999 18 37 31 23 13 15 16 22 18 0 19 -9999 -9999 -9999 -9999 -9999 -9999 -9999 -9999 -9999 -9999 -9999 0 7 8 8 7 15 13 8 10 27 14 26 42 36 30 31 40 33 21 17 46 56 50 52 52 54 58 48 43 39 23 40 35 25 22 40 62 62 61 57 55 58 59 57 55 43 47 49 45 23 23 26 37 48 38 35 62 75 23 35 30 27 18 44 55 57 49 60 76 42 36 28 33 27 34 44 37 43 34 36 41 34 41 35 38 55 26 39 22 27 26 27 23 24 30 39 54 56 56 51 65 55 48 44 51 35 48 44 42 50 48 48 52 43 44 41 39 44 49 38 41 41 58 53 19 28 31 28 27 15 14 7 8 12 10 7 11 9 7 2 8 5 19 -9999 -9999 -9999 -9999 -9999 -9999 -9999 -9999 -9999 -9999 -9999 -9999 -9999 -9999 -9999 -9999 -9999 -9999 -9999 -9999 -9999 -9999 -9999 -9999 -9999 -9999 -9999 -9999 -9999 -9999 -9999 -9999 -9999 -9999 -9999 -9999 -9999 -9999 -9999 -9999 -9999 -9999 -9999 -9999 -9999 -9999 -9999 -9999 -9999 -9999 -9999 -9999 -9999 -9999 -9999 -9999 -9999 -9999 -9999 -9999 -9999 -9999 -9999 -9999 -9999 -9999 -9999 -9999 -9999 -9999 -9999 -9999 -9999 -9999 -9999 -9999 -9999 -9999 -9999 -9999 -9999 -9999 -9999 -9999 -9999 -9999 -9999 -9999 -9999 -9999 -9999 -9999 -9999 -9999 -9999 -9999 -9999 -9999 -9999 -9999 -9999 -9999
16 20 17 10 4 11 8 17 19 18 17 13 15 15 16 19 12 14 10 14 12 15 7 10 16 11 10 7 10 13 21 14 14 9 11 8 25 22 8 16 18 16 11 23 16 16 16 22 16 22 19 6 13 23 20 10 23 21 18 19 10 11 19 27 35 20 3 13 11 8 7 9 0 0 -9999 -9999 -9999 1 1 10 9 12 6 5 1 0 0 0 7 9 9 11 8 14 10 14 8 10 15 -9999 -9999 -9999 -9999 -9999 -9999 11 23 6 21 28 27 32 29 32 34 33 31 31 22 10 -9999 -9999 10 27 31 18 17 -9999 -9999 -9999 -9999 -9999 -9999 14 16 15 15 13 15 13 13 12 14 15 8 -9999 -9999 -9999 -9999 -9999 -9999 -9999 -9999 -9999 0 -9999 -9999 -9999 3 5 10 8 13 8 8 15 28 28 33 36 38 29 16 13 32 31 27 43 32 48 48 45 47 32 41 48 51 16 40 34 23 28 24 61 43 64 60 61 49 51 48 45 41 24 23 44 52 50 46 35 31 17 38 28 63 74 43 34 29 29 56 44 63 55 68 62 24 43 43 34 32 36 30 35 30 30 31 40 48 46 40 34 29 39 28 28 22 28 26 42 40 29 32 35 45 48 54 53 59 46 54 59 50 48 50 51 46 54 46 49 55 45 53 47 53 49 41 52 45 60 53 21 26 36 28 27 25 19 12 6 12 3 6 4 15 12 1 18 0 1 -9999 -9999 -9999 -9999 -9999 -9999 -9999 -9999 -9999 -9999 -9999 -9999 -9999 -9999 -9999 -9999 -9999 -9999 -9999 -9999 -9999 -9999 -9999 -9999 -9999 -9999 -9999 -9999 -9999 -9999 -9999 -9999 -9999 -9999 -9999 -9999 -9999 -9999 -9999 -9999 -9999 -9999 -9999 -9999 -9999 -9999 -9999 -9999 -9999 -9999 -9999 -9999 -9999 -9999 -9999 -9999 -9999 -9999 -9999 -9999 -9999 -9999 -9999 -9999 -9999 -9999 -9999 -9999 -9999 -9999 -9999 -9999 -9999 -9999 -9999 -9999 -9999 -9999 -9999 -9999 -9999 -9999 -9999 -9999 -9999 -9999 -9999 -9999 -9999 -9999 -9999 -9999 -9999 -9999 -9999 -9999 -9999 -9999 -9999 -9999 -9999 -9999
16 8 7 8 9 12 10 8 15 8 11 11 9 11 15 11 23 12 9 15 14 11 12 5 14 15 5 5 6 4 12 3 12 8 2 4 0 3 5 10 15 23 14 13 14 19 24 19 13 13 11 19 6 20 11 18 7 9 14 6 19 30 22 17 20 6 7 12 10 11 13 13 -9999 -9999 -9999 -9999 -9999 -9999 -9999 13 12 7 3 3 1 1 8 10 0 3 -9999 -9999 -9999 -9999 8 15 10 8 7 -9999 -9999 -9999 -9999 -9999 -9999 -9999 11 0 12 21 22 22 24 16 23 24 23 22 23 0 11 16 11 13 16 -9999 -9999 -9999 -9999 11 14 9 15 -9999 -9999 -9999 -9999 7 -9999 -9999 -9999 -9999 -9999 -9999 -9999 -9999 0 5 11 10 10 -9999 -9999 10 6 7 13 -9999 -9999 9 12 14 14 6 13 23 26 27 28 27 25 23 30 23 33 20 32 34 34 30 39 40 38 49 37 46 35 20 44 31 26 22 22 47 53 54 51 30 43 40 40 32 14 43 42 51 47 51 36 43 33 28 21 20 25 19 27 44 36 24 23 44 50 70 51 39 34 42 38 38 26 25 37 29 39 64 32 48 47 38 30 35 36 21 28 30 24 31 34 34 27 36 32 38 33 34 48 51 51 50 50 50 48 45 49 50 46 45 54 54 62 65 56 53 54 57 47 56 42 52 56 32 30 23 28 23 25 31 13 15 9 10 17 1 4 1 0 11 -7 0 4 -9999 -9999 -9999 -9999 -9999 -9999 -9999 -9999 -9999 -9999 -9999 -9999 -9999 -9999 -9999 -9999 -9999 -9999 -9999 -9999 -9999 -9999 -9999 -9999 -9999 -9999 -9999 -9999 -9999 -9999 -9999 -9999 -9999 -9999 -9999 -9999 -9999 -9999 -9999 -9999 -9999 -9999 -9999 -9999 -9999 -9999 -9999 -9999 -9999 -9999 -9999 -9999 -9999 -9999 -9999 -9999 -9999 -9999 -9999 -9999 -9999 -9999 -9999 -9999 -9999 -9999 -9999 -9999 -9999 -9999 -9999 -9999 -9999 -9999 -9999 -9999 -9999 -9999 -9999 -9999 -9999 -9999 -9999 -9999 -9999 -9999 -9999 -9999 -9999 -9999 -9999 -9999 -9999 -9999 -9999 -9999 -9999 -9999 -9999 -9999 -9999
15 4 15 19 6 14 9 8 6 16 19 14 10 11 8 16 10 10 14 15 14 25 16 8 18 10 6 8 4 3 8 7 7 4 3 0 0 0 0 0 12 10 23 11 13 19 14 13 10 15 15 19 16 22 11 10 6 4 10 4 1 -9999 -9999 -9999 9 10 13 12 15 0 -9999 -9999 -9999 -9999 -9999 -9999 -9999 -9999 -9999 -9999 7 12 -9999 -9999 -9999 0 5 7 0 -9999 -9999 -9999 -9999 -9999 0 -9999 -9999 2 12 -9999 -9999 -9999 -9999 -9999 -9999 -9999 -9999 0 14 12 19 17 19 19 10 25 11 -1 -9999 -9999 12 13 17 22 -9999 -9999 1 -9999 -9999 -9999 -9999 2 -9999 -9999 -9999 -9999 -9999 -9999 -9999 -9999 -9999 -9999 -9999 -9999 -9999 -9999 -9999 -9999 -9999 -9999 -9999 -9999 -9999 -9999 -9999 18 20 15 17 15 13 16 17 17 18 23 18 18 20 22 20 23 22 21 -9999 18 25 25 22 31 24 29 30 34 34 37 28 22 28 35 27 21 28 44 42 42 36 38 31 34 26 24 41 51 45 41 35 41 38 37 34 27 13 23 19 14 16 14 14 21 21 21 20 29 39 52 43 24 18 31 31 30 30 35 42 34 34 43 34 34 32 31 31 33 33 28 29 28 26 28 36 31 44 52 44 37 32 43 34 47 52 56 46 43 35 45 47 54 58 59 57 59 58 54 53 44 43 37 44 46 35 32 34 27 26 29 32 28 18 17 11 9 15 10 21 16 8 17 13 0 8 -9999 -9999 -9999 -9999 -9999 -9999 -9999 -9999 -9999 -9999 -9999 -9999 -9999 -9999 -9999 -9999 -9999 -9999 -9999 -9999 -9999 -9999 -9999 -9999 -9999 -9999 -9999 -9999 -9999 -9999 -9999 -9999 -9999 -9999 -9999 -9999 -9999 -9999 -9999 -9999 -9999 -9999 -9999 -9999 -9999 -9999 -9999 -9999 -9999 -9999 -9999 -9999 -9999 -9999 -9999 -9999 -9999 -9999 -9999 -9999 -9999 -9999 -9999 -9999 -9999 -9999 -9999 -9999 -9999 -9999 -9999 -9999 -9999 -9999 -9999 -9999 -9999 -9999 -9999 -9999 -9999 -9999 -9999 -9999 -9999 -9999 -9999 -9999 -9999 -9999 -9999 -9999 -9999 -9999 -9999 -9999 -9999 -9999 -9999 -9999 -9999
10 14 10 10 9 11 7 17 8 3 11 8 25 8 11 7 11 10 15 13 12 8 9 7 7 15 4 2 2 2 3 3 3 3 0 0 0 0 0 0 0 0 4 15 22 18 16 15 17 16 19 8 10 12 9 5 8 3 11 13 8 7 8 -9999 5 -9999 -9999 -9999 -9999 -9999 -9999 -9999 -9999 -9999 -9999 -9999 -9999 -9999 -9999 -9999 -9999 -9999 -9999 -9999 -9999 -9999 -9999 1 -9999 -9999 -9999 -9999 -9999 -9999 -9999 0 0 -9999 -9999 -9999 -9999 -9999 -9999 -9999 -9999 -9999 -9999 -9999 -9999 10 10 11 15 13 -9999 22 -9999 -9999 -9999 1 8 -9999 -9999 -9999 7 5 -9999 -9999 -9999 -9999 -9999 -9999 -9999 -9999 -9999 -9999 -9999 -9999 -9999 -9999 -9999 -9999 -9999 -9999 -9999 -9999 -9999 -9999 -9999 -9999 -9999 -9999 -9999 -9999 -9999 -9999 -9999 -9999 16 15 17 18 17 15 11 5 12 17 10 0 16 20 16 13 10 13 -9999 9 16 27 28 29 31 24 26 38 27 28 22 29 25 22 32 41 35 37 49 40 44 20 22 27 34 40 39 31 43 30 28 39 34 20 16 16 17 22 17 21 16 15 20 23 20 22 26 21 17 21 23 24 28 34 34 36 35 38 33 36 36 31 34 35 28 29 29 30 23 28 34 34 36 38 33 47 59 53 50 39 29 27 36 37 39 37 53 57 52 49 44 53 54 48 57 44 45 48 43 49 42 53 56 34 27 38 24 34 30 31 27 15 13 13 16 5 23 20 11 10 8 2 4 -9999 -9999 -9999 -9999 -9999 -9999 -9999 -9999 -9999 -9999 -9999 -9999 -9999 -9999 -9999 -9999 -9999 -9999 -9999 -9999 -9999 -9999 -9999 -9999 -9999 -9999 -9999 -9999 -9999 -9999 -9999 -9999 -9999 -9999 -9999 -9999 -9999 -9999 -9999 -9999 -9999 -9999 -9999 -9999 -9999 -9999 -9999 -9999 -9999 -9999 -9999 -9999 -9999 -9999 -9999 -9999 -9999 -9999 -9999 -9999 -9999 -9999 -9999 -9999 -9999 -9999 -9999 -9999 -9999 -9999 -9999 -9999 -9999 -9999 -9999 -9999 -9999 -9999 -9999 -9999 -9999 -9999 -9999 -9999 -9999 -9999 -9999 -9999 -9999 -9999 -9999 -9999 -9999 -9999 -9999 -9999 -9999 -9999 -9999 -9999 -9999
12 14 17 7 4 11 13 7 7 4 11 1 8 9 11 15 17 10 4 8 12 8 10 8 6 3 2 2 2 2 2 2 3 0 0 0 0 0 0 0 0 0 0 7 4 13 11 19 7 12 8 16 10 2 14 11 17 15 5 7 12 -9999 -9999 -9999 -9999 -9999 -9999 -9999 -9999 -9999 -9999 -9999 -9999 -9999 -9999 -9999 -9999 -9999 -9999 -9999 -9999 -9999 -9999 -9999 -9999 -9999 -9999 -9999 -9999 -9999 -9999 -9999 -9999 -9999 -9999 -9999 -9999 -9999 -9999 -9999 -9999 -9999 -9999 -9999 -9999 -9999 -9999 -9999 -9999 -9999 7 13 7 15 15 -9999 0 0 -9999 -9999 -9999 -9999 -9999 -9999 -9999 -9999 -9999 -9999 -9999 -9999 -9999 -9999 -9999 -9999 -9999 -9999 -9999 -9999 -9999 -9999 -9999 -9999 -9999 -9999 -9999 -9999 -9999 -9999 -9999 -9999 -9999 -9999 -9999 -9999 -9999 -9999 -9999 -9999 -9999 -9999 -9999 15 18 15 19 16 7 4 1 -9999 8 18 11 6 -9999 10 19 17 22 29 28 35 26 31 25 23 35 27 18 22 23 22 24 33 37 40 44 37 34 26 20 33 36 35 34 31 32 28 41 27 22 7 17 17 22 19 13 10 15 19 17 16 17 28 15 17 21 20 20 25 26 37 31 36 32 33 33 36 42 36 37 34 33 32 26 29 32 33 31 30 32 32 36 42 55 58 51 54 39 38 36 45 45 45 46 50 52 58 54 54 55 53 48 44 42 52 50 46 44 49 56 42 44 40 39 27 30 28 26 30 2 0 0 13 10 7 14 18 11 5 9 -9999 -9999 -9999 -9999 -9999 -9999 -9999 -9999 -9999 -9999 -9999 -9999 -9999 -9999 -9999 -9999 -9999 -9999 -9999 -9999 -9999 -9999 -9999 -9999 -9999 -9999 -9999 -9999 -9999 -9999 -9999 -9999 -9999 -9999 -9999 -9999 -9999 -9999 -9999 -9999 -9999 -9999 -9999 -9999 -9999 -9999 -9999 -9999 -9999 -9999 -9999 -9999 -9999 -9999 -9999 -9999 -9999 -9999 -9999 -9999 -9999 -9999 -9999 -9999 -9999 -9999 -9999 -9999 -9999 -9999 -9999 -9999 -9999 -9999 -9999 -9999 -9999 -9999 -9999 -9999 -9999 -9999 -9999 -9999 -9999 -9999 -9999 -9999 -9999 -9999 -9999 -9999 -9999 -9999 -9999 -9999 -9999 -9999 -9999 -9999 -9999
15 14 9 9 2 5 2 17 6 12 4 8 8 3 13 9 5 5 5 10 5 9 4 6 7 2 2 2 2 2 3 2 0 0 0 0 0 0 0 0 0 0 0 0 9 0 2 3 13 11 8 9 10 -1 10 10 9 11 19 1 -9999 -9999 -9999 -9999 -9999 -9999 -9999 -9999 -9999 -9999 -9999 -9999 -9999 -9999 -9999 -9999 -9999 -9999 -9999 -9999 -9999 -9999 -9999 -9999 -9999 -9999 -9999 -9999 -9999 -9999 -9999 -9999 -9999 -9999 -9999 -9999 -9999 -9999 -9999 5 -9999 -9999 -9999 -9999 2 -9999 -9999 -9999 -9999 11 11 1 0 -9999 -9999 -9999 -9999 -9999 -9999 -9999 -9999 -9999 -9999 -9999 -9999 -9999 -9999 -9999 -9999 -9999 -9999 -9999 -9999 -9999 -9999 -9999 -9999 -9999 -9999 -9999 -9999 -9999 -9999 -9999 -9999 -9999 -9999 -9999 -9999 -9999 -9999 -9999 -9999 -9999 -9999 -9999 -9999 -9999 -9999 -9999 -9999 -9999 -9999 -9999 12 21 10 -9999 -9999 -9999 -9999 -9999 0 8 11 16 11 13 21 21 22 28 39 25 31 26 28 6 23 18 15 17 29 33 38 39 36 28 34 26 20 29 32 31 33 28 27 24 25 25 27 20 17 11 13 15 12 11 20 14 10 14 15 19 10 14 11 19 20 20 24 20 32 29 32 30 35 33 40 35 31 31 34 29 16 32 30 29 31 32 45 42 40 40 52 53 59 53 57 45 50 42 48 38 45 48 60 55 60 49 54 59 49 54 50 55 51 51 45 49 60 41 38 36 36 34 26 29 16 27 13 6 0 1 17 10 -8 10 9 11 3 -9999 -9999 -9999 -9999 -9999 -9999 -9999 -9999 -9999 -9999 -9999 -9999 -9999 -9999 -9999 -9999 -9999 -9999 -9999 -9999 -9999 -9999 -9999 -9999 -9999 -9999 -9999 -9999 -9999 -9999 -9999 -9999 -9999 -9999 -9999 -9999 -9999 -9999 -9999 -9999 -9999 -9999 -9999 -9999 -9999 -9999 -9999 -9999 -9999 -9999 -9999 -9999 -9999 -9999 -9999 -9999 -9999 -9999 -9999 -9999 -9999 -9999 -9999 -9999 -9999 -9999 -9999 -9999 -9999 -9999 -9999 -9999 -9999 -9999 -9999 -9999 -9999 -9999 -9999 -9999 -9999 -9999 -9999 -9999 -9999 -9999 -9999 -9999 -9999 -9999 -9999 -9999 -9999 -9999 -9999 -9999 -9999 -9999 -9999 -9999 -9999
14 5 13 12 3 5 1 4 9 5 6 5 10 14 7 6 7 4 3 4 9 6 3 2 2 2 2 2 2 3 0 0 0 0 0 0 0 0 0 0 0 0 0 0 0 0 0 0 3 2 0 1 2 3 1 9 0 2 2 -9999 -9999 -9999 -9999 -9999 -9999 -9999 -9999 -9999 -9999 -9999 -9999 -9999 -9999 -9999 -9999 -9999 -9999 -9999 -9999 -9999 -9999 -9999 -9999 -9999 0 -9999 -9999 -9999 -9999 -9999 -9999 -9999 -9999 -9999 -9999 -9999 -9999 -9999 -9999 -9999 -9999 -9999 -9999 -9999 -9999 -9999 -9999 -9999 -9999 -9999 -9999 -9999 -9999 -9999 -9999 -9999 -9999 -9999 -9999 -9999 -9999 -9999 -9999 -9999 -9999 -9999 -9999 -9999 -9999 -9999 -9999 -9999 -9999 -9999 -9999 -9999 -9999 -9999 -9999 -9999 -9999 -9999 -9999 -9999 -9999 -9999 -9999 -9999 -9999 -9999 -9999 -9999 -9999 -9999 -9999 -9999 -9999 -9999 -9999 -9999 -9999 -9999 -9999 -9999 -9999 -9999 16 4 2 -9999 -9999 -9999 10 20 13 21 21 17 25 19 30 22 23 26 26 27 27 22 15 15 17 22 29 32 30 28 30 34 31 27 26 17 28 34 31 32 25 26 27 24 24 18 18 11 24 18 15 21 12 14 14 14 11 13 9 18 15 15 19 17 23 26 23 24 35 32 37 34 30 36 31 32 35 30 30 25 29 30 33 34 32 37 37 40 48 46 58 67 65 62 44 45 55 52 50 57 57 58 57 43 58 59 59 53 51 41 49 45 51 54 61 52 40 39 33 31 24 22 25 20 13 11 4 0 3 7 12 21 21 9 5 -9999 -9999 -9999 -9999 -9999 -9999 -9999 -9999 -9999 -9999 -9999 -9999 -9999 -9999 -9999 -9999 -9999 -9999 -9999 -9999 -9999 -9999 -9999 -9999 -9999 -9999 -9999 -9999 -9999 -9999 -9999 -9999 -9999 -9999 -9999 -9999 -9999 -9999 -9999 -9999 -9999 -9999 -9999 -9999 -9999 -9999 -9999 -9999 -9999 -9999 -9999 -9999 -9999 -9999 -9999 -9999 -9999 -9999 -9999 -9999 -9999 -9999 -9999 -9999 -9999 -9999 -9999 -9999 -9999 -9999 -9999 -9999 -9999 -9999 -9999 -9999 -9999 -9999 -9999 -9999 -9999 -9999 -9999 -9999 -9999 -9999 -9999 -9999 -9999 -9999 -9999 -9999 -9999 -9999 -9999 -9999 -9999 -9999 -9999 -9999 -9999
9 10 10 10 10 -2 6 13 18 5 8 7 14 20 2 7 13 0 13 8 5 5 2 6 7 2 2 2 2 7 0 0 0 0 0 0 0 0 0 0 0 0 0 0 0 0 0 0 0 0 1 3 2 0 2 2 3 0 0 -9999 -9999 -9999 -9999 -9999 -9999 -9999 -9999 -9999 -9999 -9999 -9999 -9999 -9999 -9999 -9999 -9999 -9999 -9999 -9999 -9999 -9999 -9999 -9999 -9999 -9999 -9999 -9999 -9999 -9999 -9999 -9999 -9999 -9999 -9999 -9999 -9999 -9999 -9999 -9999 -9999 -9999 -9999 -9999 -9999 -9999 -9999 -9999 -9999 -9999 -9999 -9999 -9999 -9999 -9999 -9999 -9999 -9999 -9999 -9999 -9999 -9999 -9999 -9999 -9999 -9999 -9999 -9999 -9999 -9999 -9999 -9999 -9999 -9999 -9999 -9999 -9999 -9999 -9999 -9999 -9999 -9999 -9999 -9999 -9999 -9999 -9999 -9999 -9999 -9999 -9999 -9999 -9999 -9999 -9999 -9999 -9999 -9999 -9999 -9999 -9999 -9999 -9999 -9999 -9999 -9999 -9999 -9999 -1 11 7 0 7 13 14 18 16 23 18 17 17 19 21 18 25 29 21 17 21 19 18 28 27 26 32 32 30 28 22 23 33 32 21 28 28 26 24 20 24 23 27 19 18 14 21 15 8 15 14 11 10 15 9 15 21 22 21 17 16 13 27 15 16 17 26 27 30 28 35 34 33 35 35 36 33 26 23 32 31 30 29 30 32 39 41 38 63 48 57 61 58 34 53 32 50 58 58 59 67 58 55 56 50 52 47 51 44 43 50 56 58 52 56 35 38 34 34 35 23 22 6 5 11 0 7 10 11 8 22 20 13 9 2 -9999 -9999 -9999 -9999 -9999 -9999 -9999 -9999 -9999 -9999 -9999 -9999 -9999 -9999 -9999 -9999 -9999 -9999 -9999 -9999 -9999 -9999 -9999 -9999 -9999 -9999 -9999 -9999 -9999 -9999 -9999 -9999 -9999 -9999 -9999 -9999 -9999 -9999 -9999 -9999 -9999 -9999 -9999 -9999 -9999 -9999 -9999 -9999 -9999 -9999 -9999 -9999 -9999 -9999 -9999 -9999 -9999 -9999 -9999 -9999 -9999 -9999 -9999 -9999 -9999 -9999 -9999 -9999 -9999 -9999 -9999 -9999 -9999 -9999 -9999 -9999 -9999 -9999 -9999 -9999 -9999 -9999 -9999 -9999 -9999 -9999 -9999 -9999 -9999 -9999 -9999 -9999 -9999 -9999 -9999 -9999 -9999 -9999 -9999 -9999
8 15 4 9 11 13 0 5 5 15 6 4 5 6 6 5 8 5 9 2 5 3 8 7 4 3 2 3 9 0 0 0 0 0 0 0 0 0 0 0 0 0 0 0 0 0 -1 0 0 0 1 2 1 0 1 -9999 -9999 -9999 -9999 -9999 -9999 -9999 -9999 -9999 -9999 -9999 0 -9999 -9999 -9999 -9999 -9999 -9999 -9999 -9999 -9999 -9999 -9999 -9999 -9999 -9999 -9999 -9999 -9999 -9999 -9999 -9999 -9999 -9999 -9999 -9999 -9999 -9999 -9999 -9999 -9999 -9999 -9999 -9999 -9999 -9999 -9999 -9999 -9999 -9999 -9999 -9999 -9999 -9999 -9999 -9999 -9999 -9999 -9999 -9999 -9999 -9999 -9999 -9999 -9999 -9999 -9999 -9999 -9999 -9999 -9999 -9999 -9999 -9999 -9999 -9999 -9999 -9999 -9999 -9999 -9999 -9999 -9999 -9999 -9999 -9999 -9999 -9999 -9999 -9999 -9999 -9999 -9999 -9999 -9999 -9999 -9999 -9999 -9999 -9999 -9999 -9999 -9999 -9999 -9999 -9999 -9999 -9999 -9999 -9999 -9999 -9999 -9999 -9999 5 9 -9999 5 16 17 15 22 14 15 25 18 20 19 27 19 14 12 21 20 17 22 11 24 25 22 24 24 21 25 27 30 24 24 29 31 24 23 24 25 17 16 16 22 20 11 18 14 9 18 6 12 18 16 17 14 10 17 15 21 15 16 21 18 15 26 20 29 35 32 31 31 30 27 36 26 19 27 29 29 24 25 30 31 35 43 44 41 52 45 43 42 43 44 42 31 51 64 48 47 48 57 49 48 50 48 54 56 48 49 51 59 64 32 36 35 30 36 34 10 16 26 0 5 12 12 9 6 18 21 7 17 13 -9999 -9999 -9999 -9999 -9999 -9999 -9999 -9999 -9999 -9999 -9999 -9999 -9999 -9999 -9999 -9999 -9999 -9999 -9999 -9999 -9999 -9999 -9999 -9999 -9999 -9999 -9999 -9999 -9999 -9999 -9999 -9999 -9999 -9999 -9999 -9999 -9999 -9999 -9999 -9999 -9999 -9999 -9999 -9999 -9999 -9999 -9999 -9999 -9999 -9999 -9999 -9999 -9999 -9999 -9999 -9999 -9999 -9999 -9999 -9999 -9999 -9999 -9999 -9999 -9999 -9999 -9999 -9999 -9999 -9999 -9999 -9999 -9999 -9999 -9999 -9999 -9999 -9999 -9999 -9999 -9999 -9999 -9999 -9999 -9999 -9999 -9999 -9999 -9999 -9999 -9999 -9999 -9999 -9999 -9999 -9999 -9999 -9999 -9999 -9999
6 3 6 9 7 1 -2 4 -3 3 4 5 11 10 8 4 4 11 11 10 5 7 10 9 5 6 4 3 4 7 0 0 0 0 0 0 0 0 0 0 0 0 0 0 0 3 5 0 0 3 0 3 0 -9999 -9999 -9999 -9999 -9999 -9999 -9999 -9999 -9999 -9999 -9999 -9999 0 -9999 -9999 -9999 -9999 -9999 -9999 -9999 -9999 -9999 -9999 -9999 -9999 -9999 -9999 -9999 -9999 -9999 -9999 -9999 -9999 -9999 -9999 -9999 -9999 -9999 -9999 -9999 -9999 -9999 -9999 -9999 -9999 -9999 -9999 -9999 -9999 -9999 -9999 -9999 -9999 -9999 -9999 -9999 -9999 -9999 -9999 -9999 -9999 -9999 -9999 -9999 -9999 -9999 -9999 -9999 -9999 -9999 -9999 -9999 -9999 -9999 -9999 -9999 -9999 -9999 -9999 -9999 -9999 -9999 -9999 -9999 -9999 -9999 -9999 -9999 -9999 -9999 -9999 -9999 -9999 -9999 -9999 -9999 -9999 -9999 -9999 -9999 -9999 -9999 -9999 -9999 -9999 -9999 -9999 -9999 -9999 -9999 -9999 -9999 -9999 -9999 -9999 -9999 -9999 -9999 -9999 -9999 12 0 -9999 3 10 17 17 11 22 20 11 12 17 21 20 14 17 7 24 15 18 18 21 26 24 24 23 24 21 16 21 27 27 22 23 18 19 20 16 16 16 12 6 3 0 6 20 16 7 5 13 19 12 14 13 12 25 10 12 19 20 19 19 29 30 30 42 31 33 34 32 29 20 25 21 19 20 21 26 27 41 38 37 39 37 40 43 42 48 24 28 25 49 51 49 54 60 46 51 49 51 56 49 53 47 46 45 45 61 37 33 39 24 40 25 9 28 10 8 0 7 7 6 7 8 15 21 14 0 -9999 -9999 -9999 -9999 -9999 -9999 -9999 -9999 -9999 -9999 -9999 -9999 -9999 -9999 -9999 -9999 -9999 -9999 -9999 -9999 -9999 -9999 -9999 -9999 -9999 -9999 -9999 -9999 -9999 -9999 -9999 -9999 -9999 -9999 -9999 -9999 -9999 -9999 -9999 -9999 -9999 -9999 -9999 -9999 -9999 -9999 -9999 -9999 -9999 -9999 -9999 -9999 -9999 -9999 -9999 -9999 -9999 -9999 -9999 -9999 -9999 -9999 -9999 -9999 -9999 -9999 -9999 -9999 -9999 -9999 -9999 -9999 -9999 -9999 -9999 -9999 -9999 -9999 -9999 -9999 -9999 -9999 -9999 -9999 -9999 -9999 -9999 -9999 -9999 -9999 -9999 -9999 -9999 -9999 -9999 -9999 -9999 -9999 -9999 -9999
3 2 2 6 8 5 5 4 16 2 3 8 8 3 6 8 5 6 8 6 10 5 7 8 4 10 2 7 5 12 0 0 0 0 0 0 0 0 0 0 0 0 0 0 0 6 5 5 1 4 5 3 -9999 -9999 -9999 -9999 -9999 -9999 -9999 -9999 -9999 -9999 -9999 -9999 -9999 -9999 -9999 -9999 -9999 -9999 -9999 -9999 -9999 -9999 -9999 -9999 -9999 -9999 -9999 -9999 -9999 -9999 -9999 -9999 -9999 -9999 -9999 -9999 -9999 -9999 -9999 -9999 -9999 -9999 -9999 -9999 -9999 -9999 -9999 -9999 -9999 -9999 -9999 -9999 -9999 -9999 -9999 -9999 -9999 -9999 -9999 -9999 -9999 -9999 -9999 -9999 -9999 -9999 -9999 -9999 -9999 -9999 -9999 -9999 -9999 -9999 -9999 -9999 -9999 -9999 -9999 -9999 -9999 -9999 -9999 -9999 -9999 -9999 -9999 -9999 -9999 -9999 -9999 -9999 -9999 -9999 -9999 -9999 -9999 -9999 -9999 -9999 -9999 -9999 -9999 -9999 -9999 -9999 -9999 -9999 -9999 -9999 -9999 -9999 -9999 -9999 -9999 -9999 -9999 -9999 -9999 -9999 -9999 14 8 -9999 -9999 -9999 7 10 15 15 17 13 14 11 15 18 15 27 13 15 14 20 22 15 21 19 16 15 19 24 16 18 24 22 19 26 28 21 22 13 8 6 -9999 -9999 -9999 7 -9999 -9999 -9999 -9999 4 5 17 12 12 15 9 14 16 19 20 20 26 20 27 28 32 32 32 31 34 30 29 23 23 21 20 9 18 23 25 34 39 38 34 39 43 46 42 38 30 36 26 38 46 35 45 47 49 49 53 52 50 50 45 49 47 56 49 66 48 38 42 35 20 22 15 14 9 8 0 25 9 14 5 9 21 13 7 -1 -9999 -9999 -9999 -9999 -9999 -9999 -9999 -9999 -9999 -9999 -9999 -9999 -9999 -9999 -9999 -9999 -9999 -9999 -9999 -9999 -9999 -9999 -9999 -9999 -9999 -9999 -9999 -9999 -9999 -9999 -9999 -9999 -9999 -9999 -9999 -9999 -9999 -9999 -9999 -9999 -9999 -9999 -9999 -9999 -9999 -9999 -9999 -9999 -9999 -9999 -9999 -9999 -9999 -9999 -9999 -9999 -9999 -9999 -9999 -9999 -9999 -9999 -9999 -9999 -9999 -9999 -9999 -9999 -9999 -9999 -9999 -9999 -9999 -9999 -9999 -9999 -9999 -9999 -9999 -9999 -9999 -9999 -9999 -9999 -9999 -9999 -9999 -9999 -9999 -9999 -9999 -9999 -9999 -9999 -9999 -9999 -9999 -9999 -9999 -9999
2 7 8 2 7 4 9 10 5 15 6 10 5 13 4 4 8 4 4 8 10 6 8 7 13 2 11 1 7 3 8 3 0 0 0 0 0 0 0 0 0 0 0 2 2 6 7 4 7 3 -9999 -9999 -9999 -9999 -9999 -9999 -9999 0 -1 -9999 -9999 -9999 -9999 -9999 -9999 2 1 -9999 -9999 -9999 -9999 -9999 -9999 -9999 -9999 -9999 -9999 -9999 -9999 -9999 -9999 -9999 -9999 -9999 -9999 -9999 -9999 -9999 -9999 -9999 -9999 -9999 -9999 -9999 -9999 -9999 -9999 -9999 -9999 -9999 -9999 -9999 -9999 -9999 -9999 -9999 -9999 -9999 -9999 -9999 -9999 -9999 -9999 -9999 -9999 -9999 -9999 -9999 -9999 -9999 -9999 -9999 -9999 -9999 -9999 -9999 -9999 -9999 -9999 -9999 -9999 -9999 -9999 -9999 -9999 -9999 -9999 -9999 -9999 -9999 -9999 -9999 -9999 -9999 -9999 -9999 -9999 -9999 -9999 -9999 -9999 -9999 -9999 -9999 -9999 -9999 -9999 -9999 -9999 -9999 -9999 -9999 -9999 -9999 -9999 -9999 -9999 -9999 -9999 -9999 -9999 -9999 -9999 -9999 -9999 8 9 -9999 9 -9999 2 12 9 12 21 18 19 16 20 14 17 12 14 13 15 9 10 15 15 20 20 19 19 20 13 24 16 18 18 15 12 7 -9999 -9999 -9999 -9999 -9999 -9999 -9999 -9999 -9999 -9999 -9999 -9999 4 13 7 18 19 14 11 12 11 13 22 24 23 31 27 27 32 28 31 31 31 28 27 28 25 23 19 20 17 25 25 34 32 38 34 35 32 34 24 19 33 41 40 52 41 48 51 51 52 51 56 44 42 40 42 50 50 68 62 43 47 38 21 30 29 21 16 17 1 15 19 17 12 11 12 21 8 1 -2 -9999 -9999 -9999 -9999 -9999 -9999 -9999 -9999 -9999 -9999 -9999 -9999 -9999 -9999 -9999 -9999 -9999 -9999 -9999 -9999 -9999 -9999 -9999 -9999 -9999 -9999 -9999 -9999 -9999 -9999 -9999 -9999 -9999 -9999 -9999 -9999 -9999 -9999 -9999 -9999 -9999 -9999 -9999 -9999 -9999 -9999 -9999 -9999 -9999 -9999 -9999 -9999 -9999 -9999 -9999 -9999 -9999 -9999 -9999 -9999 -9999 -9999 -9999 -9999 -9999 -9999 -9999 -9999 -9999 -9999 -9999 -9999 -9999 -9999 -9999 -9999 -9999 -9999 -9999 -9999 -9999 -9999 -9999 -9999 -9999 -9999 -9999 -9999 -9999 -9999 -9999 -9999 -9999 -9999 -9999 -9999 -9999 -9999 -9999
1 3 5 5 3 7 8 10 7 10 6 3 4 2 12 13 4 4 4 7 7 5 5 4 6 2 1 6 8 4 -6 7 2 2 -1 2 1 3 0 4 1 1 3 8 0 7 -1 -9999 -9999 -9999 -9999 -9999 -9999 -9999 -9999 -9999 -9999 -1 2 -9999 -9999 -9999 -9999 -9999 -9999 0 -9999 -9999 -9999 -9999 -9999 -9999 -9999 -9999 -9999 -9999 -9999 -9999 -9999 -9999 -9999 -9999 -9999 -9999 -9999 -9999 -9999 -9999 -9999 -9999 -9999 -9999 -9999 -9999 -9999 -9999 -9999 -9999 -9999 -9999 -9999 -9999 -9999 -9999 -9999 -9999 -9999 -9999 -9999 -9999 -9999 -9999 -9999 -9999 -9999 -9999 -9999 -9999 -9999 -9999 -9999 -9999 -9999 -9999 -9999 -9999 -9999 -9999 -9999 -9999 -9999 -9999 -9999 -9999 -9999 -9999 -9999 -9999 -9999 -9999 -9999 -9999 -9999 -9999 -9999 -9999 -9999 -9999 -9999 -9999 -9999 -9999 -9999 -9999 -9999 -9999 -9999 -9999 -9999 -9999 -9999 -9999 -9999 -9999 -9999 -9999 -9999 -9999 -9999 -9999 -9999 -9999 -9999 -9999 -9999 -9999 6 5 -9999 0 16 5 7 22 17 11 11 14 12 11 10 18 13 13 14 13 11 15 9 14 11 11 13 11 13 19 19 13 8 6 8 -9999 -9999 -9999 -9999 -9999 -9999 -9999 -9999 -9999 -9999 -9999 -9999 -9999 -9999 -9999 2 9 8 13 12 17 14 21 22 28 28 36 24 30 31 30 29 29 28 30 27 27 31 28 28 21 15 25 25 32 31 31 32 32 27 24 23 19 25 24 20 32 37 44 43 44 44 55 51 48 46 41 43 46 53 73 59 44 37 34 41 32 48 40 20 14 2 11 16 11 7 10 19 22 14 11 16 -9999 -9999 -9999 -9999 -9999 -9999 -9999 -9999 -9999 -9999 -9999 -9999 -9999 -9999 -9999 -9999 -9999 -9999 -9999 -9999 -9999 -9999 -9999 -9999 -9999 -9999 -9999 -9999 -9999 -9999 -9999 -9999 -9999 -9999 -9999 -9999 -9999 -9999 -9999 -9999 -9999 -9999 -9999 -9999 -9999 -9999 -9999 -9999 -9999 -9999 -9999 -9999 -9999 -9999 -9999 -9999 -9999 -9999 -9999 -9999 -9999 -9999 -9999 -9999 -9999 -9999 -9999 -9999 -9999 -9999 -9999 -9999 -9999 -9999 -9999 -9999 -9999 -9999 -9999 -9999 -9999 -9999 -9999 -9999 -9999 -9999 -9999 -9999 -9999 -9999 -9999 -9999 -9999 -9999 -9999 -9999 -9999 -9999 -9999
